ply
format ascii 1.0
element vertex 1919
property float x
property float y
property float z
property uchar red
property uchar green
property uchar blue
end_header
-689 248 1460 51 51 51
-677 247 1458 50 50 50
-662 245 1449 53 53 53
-619 232 1376 79 79 79
-458 175 1030 186 186 186
-450 174 1029 207 207 207
-463 182 1078 170 170 170
-466 185 1103 141 141 141
-471 190 1135 101 101 101
-443 181 1085 5 5 5
-460 191 1148 141 141 141
-468 197 1188 126 126 126
-464 199 1200 128 128 128
-459 199 1208 140 140 140
-455 201 1220 144 144 144
-451 203 1233 138 138 138
-447 204 1245 146 146 146
-438 203 1242 176 176 176
-434 205 1254 171 171 171
-437 210 1288 110 110 110
-446 218 1341 81 81 81
-417 208 1281 138 138 138
-384 195 1201 164 164 164
-394 204 1260 115 115 115
-428 225 1400 76 76 76
-436 234 1455 75 75 75
-430 235 1468 128 128 128
-420 234 1464 147 147 147
-411 234 1466 122 122 122
-401 233 1464 144 144 144
-347 207 1295 174 174 174
-321 196 1226 180 180 180
-308 192 1202 155 155 155
-318 203 1275 96 96 96
-307 201 1264 123 123 123
-281 188 1185 150 150 150
-264 181 1142 138 138 138
-256 180 1137 140 140 140
-255 185 1166 126 126 126
-260 193 1223 158 158 158
-259 198 1256 174 174 174
-260 204 1297 105 105 105
-234 190 1205 161 161 161
-231 193 1226 133 133 133
-211 182 1157 178 178 178
-205 183 1163 168 168 168
-198 182 1161 175 175 175
-205 195 1249 151 151 151
-205 202 1293 135 135 135
-198 203 1300 155 155 155
-186 198 1268 160 160 160
-182 202 1296 126 126 126
-178 206 1323 105 105 105
-165 199 1279 136 136 136
-172 217 1401 107 107 107
-168 222 1435 99 99 99
-156 217 1401 103 103 103
-144 211 1364 115 115 115
-125 194 1251 9 9 9
-116 191 1236 9 9 9
-110 194 1253 7 7 7
-119 222 1443 5 5 5
-110 221 1435 134 134 134
-95 206 1339 109 109 109
-84 199 1294 114 114 114
-82 213 1384 103 103 103
-75 215 1400 84 84 84
-67 216 1405 84 84 84
-57 208 1355 111 111 111
-45 190 1234 12 12 12
-40 203 1319 146 146 146
-34 212 1384 89 89 89
-26 212 1381 78 78 78
-17 197 1283 140 140 140
-9 182 1185 6 6 6
-2 155 1004 8 8 8
3 155 1003 8 8 8
9 157 1016 10 10 10
15 158 1022 8 8 8
29 211 1380 137 137 137
39 226 1478 181 181 181
46 218 1427 168 168 168
47 192 1252 9 9 9
61 214 1397 133 133 133
72 221 1447 104 104 104
79 218 1426 135 135 135
88 221 1447 117 117 117
95 218 1426 101 101 101
96 203 1323 111 111 111
102 200 1306 123 123 123
116 211 1376 98 98 98
117 200 1304 183 183 183
127 203 1326 179 179 179
135 204 1329 174 174 174
143 204 1331 159 159 159
156 211 1374 119 119 119
162 209 1363 120 120 120
166 204 1330 124 124 124
171 201 1308 130 130 130
170 192 1245 174 174 174
181 195 1266 9 9 9
187 194 1256 9 9 9
203 202 1314 6 6 6
228 219 1422 149 149 149
243 225 1463 146 146 146
252 226 1465 133 133 133
248 215 1394 113 113 113
246 206 1334 123 123 123
250 203 1314 128 128 128
252 199 1282 146 146 146
255 195 1259 6 6 6
266 198 1277 9 9 9
267 193 1242 9 9 9
303 213 1373 143 143 143
311 213 1374 120 120 120
318 212 1365 106 106 106
315 206 1320 119 119 119
317 201 1292 154 154 154
321 200 1277 172 172 172
323 196 1253 176 176 176
343 203 1300 162 162 162
368 213 1362 126 126 126
360 204 1301 173 173 173
374 208 1324 161 161 161
388 211 1341 144 144 144
398 212 1348 126 126 126
400 209 1323 123 123 123
403 206 1305 128 128 128
403 202 1278 144 144 144
398 196 1236 178 178 178
439 212 1338 135 135 135
443 210 1324 158 158 158
429 200 1256 6 6 6
451 207 1297 178 178 178
461 207 1298 146 146 146
464 205 1284 145 145 145
467 203 1269 154 154 154
470 201 1252 160 160 160
474 200 1242 162 162 162
479 198 1230 159 159 159
484 197 1223 156 156 156
473 190 1174 169 169 169
457 181 1114 208 208 208
496 193 1190 100 100 100
491 189 1157 144 144 144
485 184 1124 190 190 190
480 179 1094 206 206 206
467 172 1045 191 191 191
586 212 1294 97 97 97
654 233 1423 83 83 83
658 231 1409 77 77 77
660 229 1389 72 72 72
661 226 1371 66 66 66
664 224 1355 67 67 67
664 222 1335 78 78 78
674 222 1333 68 68 68
673 219 1311 76 76 76
673 216 1290 87 87 87
670 213 1266 105 105 105
678 212 1261 105 105 105
670 208 1229 141 141 141
666 204 1203 171 171 171
666 202 1185 190 190 190
671 201 1177 182 182 182
-809 261 1428 46 46 46
-808 264 1447 47 47 47
-794 262 1444 46 46 46
-783 261 1444 46 46 46
-771 260 1443 45 45 45
-765 262 1455 44 44 44
-746 258 1439 43 43 43
-736 258 1441 43 43 43
-726 258 1445 46 46 46
-720 258 1454 49 49 49
-705 256 1447 49 49 49
-699 258 1458 50 50 50
-686 256 1452 48 48 48
-675 255 1453 47 47 47
-659 253 1442 49 49 49
-612 238 1360 50 50 50
-449 178 1009 182 182 182
-450 180 1027 198 198 198
-465 189 1082 168 168 168
-466 192 1103 141 141 141
-466 195 1121 96 96 96
-440 187 1077 212 212 212
-460 198 1147 141 141 141
-467 204 1185 127 127 127
-462 205 1194 132 132 132
-456 206 1200 148 148 148
-451 207 1208 157 157 157
-450 209 1227 143 143 143
-447 211 1243 137 137 137
-439 211 1244 167 167 167
-431 211 1246 171 171 171
-435 217 1282 116 116 116
-434 220 1304 101 101 101
-404 208 1237 149 149 149
-384 202 1199 159 159 159
-413 221 1319 83 83 83
-440 240 1438 64 64 64
-438 244 1461 73 73 73
-430 244 1467 131 131 131
-422 244 1470 130 130 130
-410 242 1460 87 87 87
-388 234 1415 90 90 90
-347 214 1292 131 131 131
-322 204 1228 154 154 154
-310 200 1211 140 140 140
-341 226 1369 63 63 63
-301 204 1237 103 103 103
-272 189 1144 140 140 140
-266 189 1148 153 153 153
-257 188 1142 160 160 160
-247 185 1128 147 147 147
-264 204 1243 103 103 103
-262 207 1269 135 135 135
-259 211 1292 95 95 95
-229 192 1175 173 173 173
-213 185 1131 199 199 199
-194 174 1062 7 7 7
-188 174 1064 7 7 7
-192 183 1122 208 208 208
-199 196 1208 154 154 154
-207 212 1307 107 107 107
-202 214 1323 104 104 104
-187 206 1273 129 129 129
-188 215 1334 99 99 99
-183 219 1358 115 115 115
-169 211 1309 150 150 150
-179 234 1456 163 163 163
-171 235 1465 173 173 173
-162 233 1452 117 117 117
-153 233 1455 115 115 115
-127 204 1269 8 8 8
-115 197 1224 9 9 9
-110 201 1250 7 7 7
-111 217 1354 7 7 7
-113 236 1475 182 182 182
-95 215 1346 161 161 161
-87 215 1347 125 125 125
-85 230 1442 95 95 95
-78 233 1461 117 117 117
-69 231 1452 122 122 122
-59 224 1403 151 151 151
-44 197 1230 13 13 13
-41 216 1356 172 172 172
-36 232 1457 126 126 126
-27 230 1448 101 101 101
-18 221 1386 88 88 88
-9 190 1189 6 6 6
-2 164 1025 8 8 8
3 163 1014 8 8 8
9 164 1019 10 10 10
16 172 1071 8 8 8
28 217 1366 183 183 183
40 239 1504 8 8 8
46 228 1433 6 6 6
47 199 1250 7 7 7
63 228 1437 165 165 165
74 237 1494 110 110 110
82 235 1478 126 126 126
91 237 1490 154 154 154
99 235 1481 161 161 161
100 219 1376 145 145 145
103 210 1317 135 135 135
114 216 1357 111 111 111
117 208 1303 166 166 166
126 209 1313 168 168 168
134 210 1317 171 171 171
141 210 1315 166 166 166
151 213 1333 138 138 138
157 211 1319 139 139 139
165 211 1321 129 129 129
170 208 1300 130 130 130
178 207 1297 135 135 135
187 209 1308 7 7 7
188 202 1263 9 9 9
212 220 1375 179 179 179
235 234 1466 162 162 162
249 239 1498 6 6 6
259 240 1500 137 137 137
265 238 1488 108 108 108
257 224 1394 104 104 104
252 212 1321 125 125 125
252 206 1281 143 143 143
256 204 1265 6 6 6
266 205 1274 8 8 8
301 226 1405 179 179 179
319 232 1444 126 126 126
336 239 1482 94 94 94
343 237 1471 86 86 86
331 224 1386 91 91 91
321 212 1307 131 131 131
322 207 1278 155 155 155
323 203 1252 163 163 163
352 217 1333 140 140 140
378 227 1398 93 93 93
382 224 1380 98 98 98
394 226 1391 108 108 108
395 223 1364 123 123 123
383 212 1294 137 137 137
374 203 1237 148 148 148
377 200 1220 152 152 152
385 201 1220 154 154 154
396 202 1229 167 167 167
452 226 1376 119 119 119
453 223 1353 146 146 146
435 210 1272 7 7 7
452 215 1298 180 180 180
462 216 1302 146 146 146
464 213 1283 139 139 139
467 211 1268 149 149 149
471 209 1254 154 154 154
474 207 1241 149 149 149
478 206 1228 143 143 143
482 204 1216 151 151 151
471 196 1167 174 174 174
460 189 1121 5 5 5
501 203 1200 92 92 92
489 195 1151 153 153 153
484 190 1120 190 190 190
477 185 1086 210 210 210
471 180 1055 168 168 168
601 226 1327 93 93 93
656 243 1424 80 80 80
659 241 1409 80 80 80
657 237 1383 75 75 75
659 234 1365 72 72 72
665 233 1355 69 69 69
667 231 1339 77 77 77
671 229 1326 71 71 71
674 227 1311 75 75 75
672 224 1288 91 91 91
670 221 1264 108 108 108
676 220 1257 105 105 105
668 215 1223 142 142 142
666 212 1202 174 174 174
666 209 1183 187 187 187
672 209 1176 178 178 178
-813 272 1434 44 44 44
-807 273 1444 46 46 46
-795 272 1444 45 45 45
-778 269 1435 43 43 43
-769 269 1438 44 44 44
-760 269 1444 44 44 44
-747 268 1440 41 41 41
-737 267 1443 42 42 42
-729 268 1450 43 43 43
-717 267 1448 48 48 48
-710 267 1456 47 47 47
-701 267 1460 48 48 48
-685 265 1449 45 45 45
-671 263 1443 45 45 45
-661 262 1444 49 49 49
-615 248 1365 45 45 45
-450 184 1010 177 177 177
-448 186 1023 204 204 204
-465 196 1082 167 167 167
-464 198 1097 145 145 145
-472 204 1136 99 99 99
-449 197 1099 182 182 182
-461 206 1148 141 141 141
-465 211 1179 131 131 131
-458 211 1182 138 138 138
-453 212 1192 156 156 156
-451 214 1206 153 153 153
-450 217 1227 136 136 136
-446 218 1238 133 133 133
-439 219 1242 152 152 152
-429 218 1240 160 160 160
-431 222 1269 111 111 111
-426 224 1281 107 107 107
-399 213 1221 126 126 126
-385 210 1202 143 143 143
-429 238 1370 71 71 71
-440 249 1437 63 63 63
-438 252 1461 70 70 70
-434 255 1480 104 104 104
-418 250 1455 142 142 142
-379 232 1349 88 88 88
-360 225 1309 82 82 82
-342 219 1272 119 119 119
-322 211 1227 141 141 141
-315 211 1228 122 122 122
-356 244 1427 58 58 58
-311 218 1276 88 88 88
-271 195 1142 141 141 141
-265 196 1146 158 158 158
-260 197 1152 156 156 156
-250 194 1138 144 144 144
-264 211 1240 123 123 123
-262 215 1266 152 152 152
-256 216 1274 112 112 112
-227 198 1166 169 169 169
-204 183 1080 7 7 7
-195 181 1067 7 7 7
-189 181 1067 7 7 7
-183 181 1069 7 7 7
-193 197 1168 160 160 160
-206 218 1298 103 103 103
-198 218 1298 121 121 121
-188 215 1282 137 137 137
-191 227 1357 89 89 89
-180 223 1331 97 97 97
-171 222 1329 141 141 141
-180 244 1464 123 123 123
-172 244 1469 127 127 127
-161 241 1449 107 107 107
-155 244 1470 85 85 85
-135 226 1358 149 149 149
-116 205 1229 7 7 7
-108 203 1221 6 6 6
-113 228 1376 6 6 6
-113 244 1474 159 159 159
-94 221 1331 160 160 160
-89 227 1372 129 129 129
-86 240 1451 106 106 106
-78 242 1467 147 147 147
-70 243 1471 170 170 170
-56 223 1350 6 6 6
-45 205 1237 8 8 8
-41 226 1367 6 6 6
-36 242 1467 183 183 183
-27 241 1463 139 139 139
-18 225 1363 121 121 121
-9 197 1187 8 8 8
-2 171 1026 9 9 9
3 168 1010 7 7 7
9 166 996 10 10 10
16 174 1047 7 7 7
29 230 1396 162 162 162
40 247 1498 5 5 5
45 231 1399 184 184 184
48 208 1261 6 6 6
61 228 1384 156 156 156
74 245 1491 97 97 97
82 244 1481 124 124 124
92 246 1497 156 156 156
101 247 1503 176 176 176
98 222 1344 163 163 163
105 221 1335 145 145 145
113 221 1336 137 137 137
120 219 1328 137 137 137
128 220 1332 143 143 143
130 212 1279 168 168 168
132 203 1223 185 185 185
143 208 1258 163 163 163
153 212 1281 151 151 151
165 219 1320 139 139 139
176 223 1344 136 136 136
187 226 1363 146 146 146
203 235 1418 177 177 177
186 208 1252 6 6 6
218 233 1408 172 172 172
239 247 1489 5 5 5
245 244 1470 6 6 6
260 249 1505 6 6 6
269 250 1505 5 5 5
274 247 1487 160 160 160
268 234 1407 129 129 129
252 214 1281 139 139 139
254 209 1251 177 177 177
266 213 1274 5 5 5
315 245 1466 5 5 5
330 249 1494 5 5 5
340 251 1500 152 152 152
350 251 1502 150 150 150
359 251 1502 95 95 95
346 236 1408 104 104 104
328 219 1303 138 138 138
323 211 1251 159 159 159
357 228 1351 116 116 116
387 241 1429 87 87 87
399 243 1440 84 84 84
405 241 1430 82 82 82
382 223 1320 126 126 126
359 206 1211 163 163 163
354 199 1169 184 184 184
353 195 1141 207 207 207
361 195 1141 205 205 205
386 205 1198 165 165 165
453 235 1379 117 117 117
451 230 1345 149 149 149
430 216 1257 8 8 8
452 223 1297 181 181 181
460 222 1294 147 147 147
464 221 1280 141 141 141
466 218 1264 154 154 154
471 217 1252 159 159 159
476 216 1244 147 147 147
476 212 1222 133 133 133
482 211 1215 150 150 150
470 203 1163 180 180 180
459 196 1117 199 199 199
501 210 1198 86 86 86
486 201 1143 160 160 160
483 197 1117 189 189 189
462 186 1050 219 219 219
483 191 1079 146 146 146
611 238 1347 90 90 90
653 250 1417 76 76 76
657 248 1402 75 75 75
656 245 1379 72 72 72
657 242 1358 70 70 70
664 241 1351 61 61 61
664 238 1330 67 67 67
670 237 1323 71 71 71
670 234 1302 74 74 74
671 232 1284 88 88 88
667 228 1258 106 106 106
675 228 1254 106 106 106
668 223 1221 141 141 141
666 219 1200 170 170 170
665 217 1181 182 182 182
672 216 1176 170 170 170
-810 280 1426 45 45 45
-805 281 1439 44 44 44
-791 280 1435 44 44 44
-784 280 1444 43 43 43
-771 279 1440 42 42 42
-762 279 1446 43 43 43
-749 278 1443 41 41 41
-741 278 1450 40 40 40
-728 277 1445 39 39 39
-716 276 1445 43 43 43
-712 277 1459 47 47 47
-699 276 1455 47 47 47
-684 274 1446 46 46 46
-671 272 1442 46 46 46
-661 271 1442 47 47 47
-623 259 1382 44 44 44
-451 191 1011 176 176 176
-455 195 1037 200 200 200
-467 203 1083 166 166 166
-466 206 1100 148 148 148
-475 213 1141 116 116 116
-466 212 1139 129 129 129
-462 213 1151 139 139 139
-460 216 1166 141 141 141
-458 218 1181 141 141 141
-450 218 1183 156 156 156
-442 217 1182 164 164 164
-437 218 1191 151 151 151
-435 220 1206 147 147 147
-427 220 1208 170 170 170
-419 220 1207 165 165 165
-418 223 1229 129 129 129
-412 224 1234 136 136 136
-393 217 1201 162 162 162
-384 216 1197 149 149 149
-416 239 1328 76 76 76
-426 249 1389 66 66 66
-423 252 1409 66 66 66
-404 246 1373 81 81 81
-383 238 1333 92 92 92
-365 232 1298 83 83 83
-357 231 1298 86 86 86
-340 225 1267 128 128 128
-319 216 1214 170 170 170
-319 221 1243 115 115 115
-362 256 1449 67 67 67
-343 249 1411 89 89 89
-281 210 1184 123 123 123
-264 201 1138 145 145 145
-257 201 1140 147 147 147
-257 206 1171 131 131 131
-263 217 1235 137 137 137
-262 222 1267 162 162 162
-259 226 1292 95 95 95
-226 203 1158 165 165 165
-204 189 1078 7 7 7
-196 188 1070 7 7 7
-192 190 1084 7 7 7
-184 188 1075 7 7 7
-193 205 1173 160 160 160
-201 221 1268 114 114 114
-198 225 1296 106 106 106
-192 227 1310 104 104 104
-199 245 1414 72 72 72
-176 226 1303 93 93 93
-175 235 1360 137 137 137
-180 253 1466 102 102 102
-172 254 1472 95 95 95
-161 250 1449 92 92 92
-150 246 1426 62 62 62
-129 224 1296 126 126 126
-118 216 1255 180 180 180
-114 222 1289 168 168 168
-116 243 1413 177 177 177
-113 253 1473 128 128 128
-92 223 1298 115 115 115
-88 233 1357 94 94 94
-85 248 1447 82 82 82
-78 250 1461 104 104 104
-69 250 1460 104 104 104
-55 226 1318 146 146 146
-45 215 1251 193 193 193
-40 226 1321 132 132 132
-34 241 1406 99 99 99
-26 239 1397 86 86 86
-17 225 1314 125 125 125
-8 199 1156 7 7 7
-2 170 987 8 8 8
3 175 1015 7 7 7
9 172 996 10 10 10
17 194 1130 202 202 202
28 231 1351 151 151 151
37 236 1383 151 151 151
43 226 1321 148 148 148
49 222 1297 161 161 161
59 230 1347 121 121 121
72 247 1445 73 73 73
81 250 1466 90 90 90
91 253 1486 90 90 90
100 255 1495 136 136 136
102 240 1404 170 170 170
109 237 1386 169 169 169
111 226 1318 177 177 177
119 225 1313 159 159 159
125 223 1304 147 147 147
125 210 1224 170 170 170
125 199 1156 205 205 205
126 190 1106 6 6 6
143 206 1198 181 181 181
163 222 1296 113 113 113
178 233 1356 93 93 93
181 227 1321 120 120 120
196 235 1371 126 126 126
194 224 1304 155 155 155
210 232 1352 134 134 134
238 254 1479 144 144 144
263 271 1579 5 5 5
260 259 1508 135 135 135
269 259 1508 136 136 136
278 259 1503 117 117 117
284 256 1488 95 95 95
255 224 1296 132 132 132
257 219 1265 188 188 188
282 234 1350 165 165 165
317 255 1473 147 147 147
331 259 1498 138 138 138
340 259 1496 115 115 115
351 260 1503 115 115 115
363 263 1515 88 88 88
369 261 1503 88 88 88
345 238 1368 110 110 110
322 218 1246 164 164 164
356 235 1347 115 115 115
386 249 1425 92 92 92
389 245 1404 97 97 97
394 243 1390 96 96 96
375 227 1293 129 129 129
351 208 1181 170 170 170
343 200 1131 5 5 5
352 201 1137 211 211 211
360 201 1137 210 210 210
376 206 1164 184 184 184
439 236 1336 128 128 128
445 235 1325 156 156 156
435 226 1269 6 6 6
452 230 1295 181 181 181
459 230 1291 156 156 156
462 227 1273 153 153 153
466 226 1261 163 163 163
470 224 1250 164 164 164
475 222 1239 159 159 159
475 219 1217 152 152 152
483 219 1216 156 156 156
473 212 1170 178 178 178
462 204 1122 175 175 175
506 219 1209 88 88 88
485 207 1139 168 168 168
482 203 1113 192 192 192
469 195 1063 215 215 215
478 196 1068 155 155 155
620 250 1365 81 81 81
652 259 1413 73 73 73
656 257 1399 73 73 73
663 256 1391 68 68 68
659 251 1362 69 69 69
662 249 1347 67 67 67
670 249 1342 64 64 64
663 243 1307 74 74 74
680 246 1321 66 66 66
675 242 1291 83 83 83
666 236 1255 105 105 105
674 235 1249 108 108 108
667 230 1218 139 139 139
667 227 1200 166 166 166
667 225 1183 179 179 179
672 224 1175 158 158 158
-817 292 1438 47 47 47
-810 292 1446 43 43 43
-797 291 1445 40 40 40
-778 288 1431 39 39 39
-769 287 1435 41 41 41
-760 288 1442 40 40 40
-750 287 1443 38 38 38
-737 286 1441 39 39 39
-727 285 1443 40 40 40
-715 284 1442 40 40 40
-709 285 1450 44 44 44
-699 285 1454 47 47 47
-687 284 1452 46 46 46
-673 282 1443 45 45 45
-662 281 1445 45 45 45
-627 270 1390 42 42 42
-451 197 1010 167 167 167
-446 198 1017 208 208 208
-466 210 1081 161 161 161
-466 213 1099 144 144 144
-466 216 1118 129 129 129
-463 218 1132 126 126 126
-464 221 1154 132 132 132
-464 225 1175 137 137 137
-461 227 1188 147 147 147
-457 228 1200 142 142 142
-453 230 1211 153 153 153
-449 231 1221 158 158 158
-446 234 1238 152 152 152
-440 234 1244 165 165 165
-426 231 1227 171 171 171
-426 235 1252 128 128 128
-409 230 1226 136 136 136
-384 220 1173 191 191 191
-379 221 1182 179 179 179
-379 225 1207 154 154 154
-374 227 1217 138 138 138
-368 227 1224 123 123 123
-361 227 1226 127 127 127
-359 230 1245 126 126 126
-349 229 1240 113 113 113
-344 230 1249 114 114 114
-332 228 1236 160 160 160
-316 221 1203 188 188 188
-314 225 1226 138 138 138
-326 238 1302 94 94 94
-326 244 1337 85 85 85
-306 235 1286 95 95 95
-277 219 1197 121 121 121
-269 217 1191 144 144 144
-270 224 1230 172 172 172
-267 228 1253 165 165 165
-261 229 1263 147 147 147
-258 233 1286 97 97 97
-230 214 1180 152 152 152
-212 204 1122 179 179 179
-198 196 1083 7 7 7
-189 194 1068 7 7 7
-193 204 1128 187 187 187
-203 222 1232 121 121 121
-202 229 1271 110 110 110
-194 229 1271 119 119 119
-192 235 1307 112 112 112
-205 261 1457 102 102 102
-179 237 1323 119 119 119
-178 247 1380 136 136 136
-182 264 1481 138 138 138
-173 263 1473 151 151 151
-161 258 1446 110 110 110
-142 240 1343 82 82 82
-127 227 1269 158 158 158
-117 223 1247 188 188 188
-112 227 1270 170 170 170
-118 255 1437 156 156 156
-112 261 1472 120 120 120
-91 229 1284 114 114 114
-89 244 1374 92 92 92
-86 257 1452 79 79 79
-78 260 1465 95 95 95
-66 247 1394 88 88 88
-53 226 1272 157 157 157
-45 222 1249 188 188 188
-39 228 1286 121 121 121
-32 232 1310 89 89 89
-25 233 1314 90 90 90
-17 231 1301 121 121 121
-8 207 1167 7 7 7
-2 179 1004 8 8 8
3 181 1015 7 7 7
9 181 1014 10 10 10
17 201 1129 188 188 188
28 235 1331 126 126 126
36 237 1339 121 121 121
42 231 1307 139 139 139
49 228 1286 159 159 159
58 232 1309 118 118 118
68 240 1359 91 91 91
80 255 1446 82 82 82
91 262 1487 75 75 75
101 265 1501 108 108 108
100 242 1367 141 141 141
112 252 1423 145 145 145
117 244 1379 130 130 130
118 231 1304 169 169 169
121 223 1256 161 161 161
117 203 1144 205 205 205
119 196 1099 8 8 8
126 197 1108 8 8 8
130 194 1085 7 7 7
150 212 1193 147 147 147
179 242 1361 84 84 84
178 231 1299 110 110 110
193 239 1348 112 112 112
196 233 1311 130 130 130
207 238 1335 116 116 116
228 251 1414 125 125 125
249 265 1491 146 146 146
259 266 1495 89 89 89
268 267 1501 123 123 123
277 266 1496 89 89 89
287 268 1503 89 89 89
256 232 1299 131 131 131
261 230 1286 149 149 149
277 237 1323 142 142 142
295 246 1371 114 114 114
314 254 1419 87 87 87
335 264 1472 76 76 76
352 270 1506 80 80 80
364 273 1519 80 80 80
372 272 1514 80 80 80
353 252 1400 96 96 96
322 225 1243 157 157 157
348 237 1314 122 122 122
371 247 1366 106 106 106
381 248 1372 110 110 110
376 240 1323 140 140 140
378 236 1301 125 125 125
355 218 1194 157 157 157
344 207 1134 207 207 207
353 208 1139 207 207 207
359 208 1135 209 209 209
377 214 1167 182 182 182
434 241 1318 129 129 129
441 241 1312 157 157 157
446 239 1300 186 186 186
455 240 1303 173 173 173
458 237 1285 160 160 160
459 233 1263 167 167 167
463 232 1252 178 178 178
468 231 1243 171 171 171
472 229 1230 164 164 164
477 228 1222 159 159 159
481 226 1210 160 160 160
470 217 1161 181 181 181
470 214 1140 144 144 144
505 226 1206 90 90 90
484 214 1135 172 172 172
481 210 1110 193 193 193
466 200 1055 217 217 217
483 205 1077 156 156 156
627 261 1379 82 82 82
652 268 1412 76 76 76
654 265 1393 78 78 78
657 263 1379 74 74 74
658 260 1359 70 70 70
665 259 1352 70 70 70
666 256 1331 72 72 72
664 252 1307 77 77 77
668 250 1295 76 76 76
670 248 1279 84 84 84
666 243 1252 104 104 104
674 243 1249 107 107 107
667 238 1217 137 137 137
663 234 1193 164 164 164
667 233 1181 174 174 174
672 232 1174 151 151 151
-823 303 1448 50 50 50
-805 300 1437 44 44 44
-796 300 1441 39 39 39
-787 300 1447 37 37 37
-777 300 1449 37 37 37
-763 298 1445 38 38 38
-749 296 1441 36 36 36
-739 296 1442 39 39 39
-727 294 1440 42 42 42
-719 295 1448 42 42 42
-710 295 1451 44 44 44
-698 294 1450 46 46 46
-690 294 1456 48 48 48
-675 292 1448 45 45 45
-664 291 1448 45 45 45
-634 282 1403 43 43 43
-455 206 1020 154 154 154
-445 204 1014 207 207 207
-462 215 1071 165 165 165
-457 215 1076 161 161 161
-463 221 1111 139 139 139
-467 226 1140 125 125 125
-467 230 1161 123 123 123
-464 232 1174 129 129 129
-463 235 1193 135 135 135
-459 237 1204 136 136 136
-456 239 1219 145 145 145
-453 241 1231 156 156 156
-449 243 1244 152 152 152
-444 244 1253 163 163 163
-427 239 1230 6 6 6
-418 238 1226 6 6 6
-406 236 1216 7 7 7
-392 232 1198 6 6 6
-389 234 1212 178 178 178
-387 237 1233 5 5 5
-383 239 1244 164 164 164
-379 241 1258 139 139 139
-368 239 1248 153 153 153
-361 239 1251 185 185 185
-352 239 1250 157 157 157
-344 238 1248 161 161 161
-327 231 1213 197 197 197
-311 225 1181 5 5 5
-306 226 1191 169 169 169
-303 230 1211 165 165 165
-297 230 1217 132 132 132
-290 231 1219 150 150 150
-281 229 1212 166 166 166
-273 228 1212 162 162 162
-266 228 1213 177 177 177
-258 227 1207 182 182 182
-253 229 1220 162 162 162
-243 226 1206 155 155 155
-231 222 1181 166 166 166
-224 222 1185 148 148 148
-209 213 1139 185 185 185
-202 214 1141 184 184 184
-203 221 1184 152 152 152
-201 227 1216 139 139 139
-194 228 1223 134 134 134
-188 229 1231 150 150 150
-184 232 1250 138 138 138
-188 247 1331 120 120 120
-172 235 1268 138 138 138
-169 242 1306 119 119 119
-175 261 1417 112 112 112
-166 261 1417 124 124 124
-151 250 1353 103 103 103
-135 236 1277 130 130 130
-125 230 1248 6 6 6
-115 225 1219 6 6 6
-115 239 1300 153 153 153
-118 263 1429 128 128 128
-112 268 1463 138 138 138
-93 241 1311 139 139 139
-91 257 1404 111 111 111
-83 259 1411 83 83 83
-75 256 1398 104 104 104
-62 240 1306 107 107 107
-52 229 1245 197 197 197
-44 224 1222 8 8 8
-39 233 1272 130 130 130
-32 239 1304 83 83 83
-24 239 1304 86 86 86
-16 231 1263 145 145 145
-9 221 1202 202 202 202
-1 183 990 8 8 8
3 189 1028 7 7 7
9 183 995 10 10 10
17 206 1121 192 192 192
27 234 1280 129 129 129
34 234 1279 136 136 136
41 233 1275 161 161 161
48 232 1266 185 185 185
56 234 1277 153 153 153
64 235 1286 128 128 128
73 241 1316 125 125 125
83 248 1354 127 127 127
93 253 1384 128 128 128
94 236 1286 147 147 147
110 256 1400 155 155 155
120 258 1412 137 137 137
119 240 1311 150 150 150
118 224 1221 170 170 170
112 201 1091 7 7 7
116 198 1073 8 8 8
123 199 1082 7 7 7
130 199 1082 7 7 7
150 220 1196 174 174 174
179 249 1360 114 114 114
178 238 1296 129 129 129
189 242 1320 157 157 157
195 240 1305 163 163 163
207 245 1332 123 123 123
220 251 1367 117 117 117
230 253 1375 116 116 116
249 264 1436 109 109 109
269 276 1503 164 164 164
279 277 1505 128 128 128
284 274 1485 112 112 112
252 237 1279 144 144 144
259 235 1271 183 183 183
271 240 1294 170 170 170
283 243 1313 123 123 123
295 246 1329 96 96 96
309 252 1357 86 86 86
342 271 1463 80 80 80
366 283 1524 79 79 79
374 282 1519 82 82 82
356 263 1411 97 97 97
323 233 1247 162 162 162
343 242 1292 140 140 140
360 248 1326 115 115 115
368 248 1323 115 115 115
372 246 1309 127 127 127
383 247 1317 124 124 124
379 240 1276 129 129 129
358 222 1176 175 175 175
355 216 1142 196 196 196
367 219 1157 193 193 193
389 228 1203 173 173 173
430 247 1305 122 122 122
439 247 1304 146 146 146
442 245 1287 174 174 174
452 246 1291 157 157 157
457 245 1282 152 152 152
461 243 1269 164 164 164
463 240 1251 180 180 180
464 236 1229 177 177 177
472 236 1228 165 165 165
476 234 1217 157 157 157
479 232 1202 162 162 162
460 220 1135 187 187 187
466 219 1129 151 151 151
498 231 1187 100 100 100
482 220 1129 175 175 175
478 215 1101 191 191 191
458 204 1038 221 221 221
496 217 1106 138 138 138
636 273 1398 83 83 83
651 276 1407 74 74 74
654 274 1392 78 78 78
656 271 1374 77 77 77
658 268 1356 75 75 75
667 268 1353 73 73 73
670 266 1338 71 71 71
665 261 1308 75 75 75
670 260 1299 82 82 82
666 255 1270 92 92 92
665 251 1249 99 99 99
672 251 1243 104 104 104
664 245 1210 132 132 132
666 243 1196 153 153 153
668 241 1181 167 167 167
673 240 1173 139 139 139
-822 312 1444 43 43 43
-809 311 1442 43 43 43
-795 309 1437 38 38 38
-785 309 1441 37 37 37
-769 306 1433 36 36 36
-763 307 1444 37 37 37
-753 307 1446 35 35 35
-739 305 1442 38 38 38
-733 306 1451 42 42 42
-720 305 1448 45 45 45
-706 302 1441 46 46 46
-695 302 1442 46 46 46
-690 304 1456 50 50 50
-678 302 1452 48 48 48
-662 299 1440 44 44 44
-636 291 1406 42 42 42
-457 213 1022 148 148 148
-446 211 1015 208 208 208
-456 218 1054 168 168 168
-452 220 1064 158 158 158
-465 229 1115 130 130 130
-470 235 1145 119 119 119
-469 238 1165 118 118 118
-466 240 1176 121 121 121
-463 242 1190 123 123 123
-459 244 1202 129 129 129
-456 247 1218 132 132 132
-455 250 1236 127 127 127
-452 252 1251 135 135 135
-442 251 1247 174 174 174
-428 247 1230 6 6 6
-432 254 1268 137 137 137
-431 258 1290 131 131 131
-412 251 1258 161 161 161
-387 240 1205 171 171 171
-389 246 1235 158 158 158
-383 247 1245 152 152 152
-377 248 1250 142 142 142
-369 248 1252 150 150 150
-367 251 1272 174 174 174
-357 249 1265 188 188 188
-344 245 1246 7 7 7
-329 240 1221 8 8 8
-325 242 1234 6 6 6
-312 238 1215 187 187 187
-314 245 1254 178 178 178
-306 245 1253 166 166 166
-297 243 1248 188 188 188
-279 234 1202 9 9 9
-276 238 1222 8 8 8
-273 242 1244 8 8 8
-258 234 1207 8 8 8
-258 241 1245 7 7 7
-242 233 1203 197 197 197
-233 231 1191 188 188 188
-236 241 1246 151 151 151
-230 242 1255 149 149 149
-221 240 1245 144 144 144
-216 243 1265 116 116 116
-212 247 1286 116 116 116
-202 244 1271 131 131 131
-185 232 1206 6 6 6
-179 233 1213 181 181 181
-173 234 1222 165 165 165
-163 230 1202 183 183 183
-157 233 1215 163 163 163
-153 237 1238 140 140 140
-146 237 1240 153 153 153
-138 235 1234 139 139 139
-131 236 1237 145 145 145
-128 244 1279 136 136 136
-116 234 1228 6 6 6
-110 238 1248 167 167 167
-104 240 1262 148 148 148
-97 240 1261 145 145 145
-85 227 1194 168 168 168
-80 233 1225 136 136 136
-73 233 1228 133 133 133
-66 234 1231 137 137 137
-59 235 1237 130 130 130
-52 236 1247 158 158 158
-45 235 1242 8 8 8
-37 232 1226 157 157 157
-30 234 1235 119 119 119
-23 236 1247 114 114 114
-16 235 1240 156 156 156
-9 226 1191 184 184 184
-1 193 1016 8 8 8
3 193 1017 7 7 7
9 187 982 10 10 10
17 214 1130 197 197 197
26 238 1259 160 160 160
34 241 1274 149 149 149
41 239 1263 8 8 8
48 238 1260 9 9 9
60 256 1358 138 138 138
69 261 1381 112 112 112
74 251 1327 154 154 154
81 248 1311 147 147 147
85 240 1269 152 152 152
89 230 1216 187 187 187
99 237 1250 172 172 172
108 241 1271 164 164 164
114 237 1253 188 188 188
118 232 1224 192 192 192
114 211 1112 7 7 7
120 211 1113 8 8 8
124 207 1089 7 7 7
127 201 1057 7 7 7
150 227 1193 178 178 178
164 236 1243 165 165 165
169 233 1226 179 179 179
180 239 1255 183 183 183
188 239 1258 193 193 193
201 246 1295 159 159 159
216 254 1339 123 123 123
222 252 1327 118 118 118
228 250 1315 136 136 136
236 250 1314 149 149 149
242 249 1307 142 142 142
246 245 1285 143 143 143
243 235 1229 182 182 182
251 236 1233 198 198 198
268 244 1276 184 184 184
275 244 1275 157 157 157
285 246 1282 123 123 123
292 245 1278 115 115 115
301 246 1282 124 124 124
314 251 1304 120 120 120
325 254 1319 124 124 124
328 249 1295 136 136 136
319 237 1228 173 173 173
336 244 1265 147 147 147
349 248 1283 133 133 133
355 247 1275 133 133 133
360 245 1265 128 128 128
368 246 1265 133 133 133
378 247 1269 142 142 142
382 245 1257 150 150 150
384 241 1235 158 158 158
390 240 1228 168 168 168
391 236 1207 170 170 170
421 250 1274 132 132 132
430 250 1276 160 160 160
434 248 1262 170 170 170
438 246 1251 152 152 152
446 246 1250 161 161 161
453 246 1244 172 172 172
458 245 1237 176 176 176
465 244 1230 174 174 174
471 243 1225 168 168 168
474 241 1211 159 159 159
478 239 1198 161 161 161
471 232 1161 159 159 159
484 235 1174 119 119 119
491 235 1169 120 120 120
483 228 1130 175 175 175
474 220 1091 189 189 189
447 205 1011 5 5 5
514 232 1143 122 122 122
641 285 1408 88 88 88
652 286 1409 73 73 73
656 283 1395 70 70 70
658 280 1376 71 71 71
661 278 1361 70 70 70
667 277 1353 71 71 71
673 276 1342 64 64 64
663 268 1302 78 78 78
671 268 1299 83 83 83
666 263 1268 86 86 86
667 260 1251 96 96 96
670 258 1238 97 97 97
665 253 1212 121 121 121
665 250 1192 141 141 141
667 248 1178 152 152 152
676 248 1176 122 122 122
-819 321 1438 40 40 40
-807 320 1437 40 40 40
-796 319 1439 38 38 38
-783 318 1437 36 36 36
-770 316 1434 35 35 35
-760 315 1436 36 36 36
-753 316 1445 36 36 36
-738 314 1438 39 39 39
-733 316 1450 40 40 40
-722 315 1451 44 44 44
-710 314 1449 46 46 46
-697 312 1446 50 50 50
-688 312 1449 49 49 49
-673 309 1439 48 48 48
-663 308 1441 44 44 44
-642 303 1419 41 41 41
-458 220 1023 147 147 147
-444 216 1008 214 214 214
-464 229 1074 159 159 159
-465 233 1094 143 143 143
-468 237 1119 131 131 131
-470 242 1146 123 123 123
-469 245 1163 121 121 121
-468 248 1181 120 120 120
-461 249 1185 115 115 115
-459 252 1202 134 134 134
-456 254 1216 140 140 140
-453 256 1229 138 138 138
-449 258 1243 151 151 151
-440 257 1241 175 175 175
-421 251 1211 6 6 6
-430 260 1259 140 140 140
-445 274 1330 86 86 86
-419 263 1278 134 134 134
-386 247 1201 170 170 170
-386 251 1225 149 149 149
-384 255 1245 125 125 125
-381 258 1262 116 116 116
-381 263 1293 106 106 106
-399 281 1382 92 92 92
-385 277 1366 96 96 96
-368 270 1333 101 101 101
-343 258 1272 177 177 177
-326 251 1239 7 7 7
-311 244 1209 181 181 181
-314 252 1252 139 139 139
-305 251 1248 157 157 157
-303 256 1271 135 135 135
-304 263 1309 136 136 136
-282 250 1246 7 7 7
-281 256 1278 174 174 174
-268 251 1254 8 8 8
-256 246 1232 8 8 8
-254 252 1263 177 177 177
-237 242 1213 184 184 184
-238 251 1259 160 160 160
-230 249 1253 180 180 180
-220 247 1240 7 7 7
-210 243 1224 8 8 8
-202 242 1222 9 9 9
-195 242 1221 10 10 10
-191 247 1246 9 9 9
-183 246 1245 8 8 8
-176 246 1247 7 7 7
-168 245 1242 5 5 5
-161 246 1247 175 175 175
-156 249 1262 175 175 175
-146 243 1236 7 7 7
-140 247 1254 7 7 7
-129 240 1218 7 7 7
-126 247 1258 8 8 8
-116 241 1227 9 9 9
-110 244 1244 9 9 9
-103 245 1250 8 8 8
-96 245 1252 177 177 177
-86 238 1216 177 177 177
-82 245 1253 148 148 148
-74 245 1251 150 150 150
-68 250 1278 130 130 130
-62 253 1292 133 133 133
-53 246 1259 7 7 7
-44 240 1227 9 9 9
-38 247 1263 149 149 149
-31 249 1273 120 120 120
-23 244 1250 134 134 134
-16 243 1242 145 145 145
-8 231 1180 192 192 192
-1 199 1013 8 8 8
3 199 1014 6 6 6
9 197 1007 10 10 10
17 224 1148 193 193 193
26 246 1259 6 6 6
34 245 1258 9 9 9
41 243 1245 11 11 11
47 241 1233 12 12 12
55 242 1239 12 12 12
63 246 1260 10 10 10
70 245 1258 7 7 7
78 246 1260 6 6 6
87 251 1287 162 162 162
92 244 1251 188 188 188
98 243 1244 9 9 9
105 242 1242 10 10 10
113 244 1247 11 11 11
121 245 1254 11 11 11
124 236 1208 8 8 8
121 219 1119 7 7 7
125 215 1094 7 7 7
143 233 1188 187 187 187
159 246 1259 153 153 153
166 247 1262 180 180 180
167 238 1213 194 194 194
178 243 1239 8 8 8
192 251 1282 9 9 9
200 252 1285 8 8 8
213 259 1320 189 189 189
223 261 1329 157 157 157
231 261 1329 169 169 169
240 263 1338 142 142 142
247 262 1331 135 135 135
246 252 1281 172 172 172
241 240 1218 190 190 190
257 249 1262 6 6 6
262 246 1245 7 7 7
275 251 1271 190 190 190
287 255 1291 161 161 161
299 259 1307 148 148 148
305 257 1298 144 144 144
310 255 1286 144 144 144
312 251 1263 163 163 163
318 249 1254 180 180 180
317 243 1221 180 180 180
330 247 1240 169 169 169
350 256 1285 149 149 149
363 260 1304 142 142 142
380 266 1332 116 116 116
384 264 1318 132 132 132
392 264 1318 131 131 131
399 263 1312 138 138 138
396 256 1275 184 184 184
392 249 1234 183 183 183
391 243 1205 174 174 174
418 256 1264 156 156 156
425 255 1260 169 169 169
436 257 1267 186 186 186
449 260 1282 165 165 165
453 258 1268 158 158 158
455 255 1250 146 146 146
459 253 1238 142 142 142
463 251 1225 154 154 154
470 250 1220 154 154 154
475 249 1212 156 156 156
477 246 1195 162 162 162
479 244 1180 154 154 154
487 243 1177 130 130 130
488 240 1159 145 145 145
482 234 1128 174 174 174
473 226 1086 189 189 189
455 215 1027 220 220 220
538 250 1198 109 109 109
644 295 1412 94 94 94
651 294 1404 73 73 73
658 293 1397 70 70 70
660 290 1379 65 65 65
661 287 1360 69 69 69
662 283 1339 74 74 74
673 284 1342 65 65 65
670 280 1315 70 70 70
667 275 1289 85 85 85
669 272 1273 81 81 81
667 268 1249 86 86 86
666 265 1230 91 91 91
663 260 1206 110 110 110
666 258 1193 120 120 120
668 256 1179 127 127 127
675 256 1174 100 100 100
-819 330 1436 37 37 37
-814 332 1448 38 38 38
-800 330 1445 38 38 38
-782 327 1433 34 34 34
-778 328 1446 35 35 35
-763 326 1441 36 36 36
-753 326 1444 39 39 39
-743 325 1445 41 41 41
-736 326 1454 41 41 41
-722 324 1448 43 43 43
-713 324 1453 47 47 47
-702 323 1453 50 50 50
-688 321 1447 47 47 47
-679 321 1451 47 47 47
-660 316 1434 44 44 44
-645 314 1425 41 41 41
-461 228 1030 141 141 141
-443 222 1006 216 216 216
-466 237 1076 161 161 161
-467 240 1097 144 144 144
-470 246 1125 132 132 132
-472 250 1150 124 124 124
-469 253 1163 125 125 125
-466 255 1176 124 124 124
-462 257 1187 121 121 121
-457 258 1195 138 138 138
-452 259 1203 156 156 156
-451 262 1222 146 146 146
-449 266 1241 141 141 141
-441 266 1243 167 167 167
-433 265 1242 191 191 191
-414 258 1211 6 6 6
-423 269 1265 137 137 137
-410 265 1249 147 147 147
-386 254 1198 164 164 164
-386 259 1224 143 143 143
-384 263 1245 128 128 128
-380 265 1260 124 124 124
-380 270 1286 107 107 107
-387 281 1339 86 86 86
-382 283 1352 74 74 74
-375 284 1360 72 72 72
-347 268 1284 155 155 155
-321 254 1218 7 7 7
-314 254 1220 152 152 152
-313 259 1245 123 123 123
-307 260 1253 136 136 136
-306 266 1284 112 112 112
-309 275 1330 119 119 119
-284 260 1257 177 177 177
-293 275 1335 107 107 107
-280 270 1311 128 128 128
-258 255 1240 7 7 7
-261 267 1297 126 126 126
-240 252 1227 136 136 136
-244 264 1287 108 108 108
-239 267 1302 112 112 112
-235 271 1327 110 110 110
-226 270 1322 116 116 116
-215 266 1302 135 135 135
-212 271 1330 118 118 118
-188 250 1227 8 8 8
-184 254 1246 7 7 7
-190 273 1344 114 114 114
-172 258 1267 136 136 136
-163 255 1255 151 151 151
-159 261 1285 143 143 143
-154 265 1308 161 161 161
-144 262 1292 157 157 157
-132 253 1248 8 8 8
-127 256 1264 9 9 9
-117 251 1238 9 9 9
-109 250 1236 9 9 9
-102 250 1239 9 9 9
-93 245 1212 7 7 7
-87 248 1225 185 185 185
-79 245 1213 6 6 6
-73 249 1233 7 7 7
-67 253 1256 7 7 7
-60 252 1249 9 9 9
-51 248 1229 9 9 9
-45 249 1236 10 10 10
-37 247 1227 12 12 12
-31 253 1256 10 10 10
-23 251 1249 183 183 183
-16 250 1241 167 167 167
-8 235 1166 204 204 204
-1 205 1013 8 8 8
4 206 1017 239 239 239
9 204 1009 9 9 9
17 230 1143 181 181 181
28 263 1311 155 155 155
38 282 1407 171 171 171
41 253 1259 10 10 10
48 251 1248 11 11 11
61 278 1384 152 152 152
70 279 1392 137 137 137
79 284 1419 130 130 130
83 271 1351 150 150 150
88 263 1309 140 140 140
95 259 1291 173 173 173
108 273 1360 158 158 158
114 268 1336 189 189 189
113 251 1248 11 11 11
124 257 1277 11 11 11
130 255 1268 10 10 10
142 264 1311 187 187 187
147 259 1285 163 163 163
155 259 1287 137 137 137
163 261 1295 132 132 132
170 259 1284 154 154 154
173 253 1255 188 188 188
183 256 1269 9 9 9
188 254 1257 10 10 10
199 258 1275 9 9 9
206 257 1272 9 9 9
212 256 1265 7 7 7
226 263 1299 191 191 191
234 264 1303 159 159 159
241 262 1294 164 164 164
247 261 1287 177 177 177
247 254 1247 197 197 197
258 257 1264 8 8 8
265 257 1262 9 9 9
278 262 1287 9 9 9
280 257 1260 9 9 9
290 259 1267 7 7 7
305 265 1298 162 162 162
312 264 1293 157 157 157
318 263 1285 175 175 175
324 262 1276 180 180 180
324 256 1246 168 168 168
339 261 1272 8 8 8
342 258 1255 8 8 8
356 263 1276 5 5 5
355 257 1245 6 6 6
379 268 1299 166 166 166
385 267 1291 168 168 168
392 266 1285 187 187 187
397 265 1276 5 5 5
398 260 1251 176 176 176
398 255 1227 190 190 190
418 263 1263 6 6 6
427 264 1264 190 190 190
442 268 1284 172 172 172
452 270 1288 165 165 165
457 268 1276 164 164 164
460 265 1260 151 151 151
461 261 1242 153 153 153
466 260 1232 160 160 160
470 258 1219 165 165 165
474 256 1208 162 162 162
479 254 1199 158 158 158
480 251 1180 156 156 156
483 249 1167 152 152 152
484 246 1150 153 153 153
480 240 1120 170 170 170
466 230 1068 196 196 196
460 224 1037 198 198 198
563 270 1253 101 101 101
644 304 1410 92 92 92
651 303 1403 75 75 75
656 301 1391 77 77 77
662 300 1382 66 66 66
660 295 1355 70 70 70
660 291 1335 72 72 72
663 288 1319 70 70 70
667 287 1307 72 72 72
666 283 1285 86 86 86
671 281 1275 80 80 80
673 278 1259 75 75 75
663 271 1222 91 91 91
659 266 1196 107 107 107
666 266 1192 106 106 106
668 264 1177 105 105 105
675 263 1172 90 90 90
-821 340 1437 37 37 37
-806 338 1433 37 37 37
-805 342 1452 36 36 36
-786 337 1438 35 35 35
-776 337 1441 36 36 36
-766 337 1445 36 36 36
-753 335 1441 40 40 40
-744 335 1446 41 41 41
-736 336 1453 42 42 42
-722 334 1448 43 43 43
-711 332 1447 46 46 46
-705 334 1458 48 48 48
-688 330 1446 45 45 45
-676 329 1442 43 43 43
-667 329 1447 43 43 43
-649 324 1431 40 40 40
-461 234 1029 131 131 131
-448 231 1016 202 202 202
-467 244 1077 156 156 156
-468 248 1099 143 143 143
-470 253 1124 131 131 131
-470 256 1142 128 128 128
-469 259 1159 128 128 128
-465 262 1172 132 132 132
-460 262 1178 141 141 141
-456 264 1190 144 144 144
-451 266 1200 151 151 151
-450 269 1219 140 140 140
-449 273 1239 129 129 129
-444 275 1249 135 135 135
-432 272 1240 169 169 169
-421 270 1231 185 185 185
-416 271 1241 5 5 5
-403 268 1226 185 185 185
-385 260 1194 165 165 165
-383 264 1213 160 160 160
-381 268 1232 163 163 163
-376 270 1244 158 158 158
-372 272 1257 157 157 157
-371 277 1284 119 119 119
-369 281 1305 102 102 102
-352 274 1273 134 134 134
-341 271 1262 156 156 156
-327 266 1240 6 6 6
-311 259 1206 171 171 171
-310 265 1235 168 168 168
-305 266 1245 161 161 161
-306 273 1281 116 116 116
-305 279 1312 136 136 136
-279 262 1231 6 6 6
-285 275 1294 140 140 140
-276 274 1292 157 157 157
-256 261 1232 7 7 7
-263 276 1303 113 113 113
-239 259 1222 125 125 125
-244 272 1289 95 95 95
-240 275 1306 101 101 101
-242 288 1367 80 80 80
-237 291 1386 69 69 69
-232 295 1404 68 68 68
-216 285 1357 91 91 91
-190 260 1239 7 7 7
-189 269 1284 171 171 171
-196 291 1389 77 77 77
-173 267 1276 110 110 110
-164 264 1263 121 121 121
-164 276 1323 102 102 102
-160 283 1356 113 113 113
-153 285 1368 103 103 103
-132 259 1241 7 7 7
-123 257 1230 9 9 9
-116 257 1231 9 9 9
-119 280 1345 132 132 132
-115 289 1393 130 130 130
-108 292 1404 137 137 137
-91 266 1280 140 140 140
-85 270 1300 120 120 120
-79 278 1339 105 105 105
-72 281 1354 118 118 118
-64 281 1354 151 151 151
-52 258 1243 9 9 9
-45 258 1244 11 11 11
-41 281 1357 153 153 153
-33 277 1336 142 142 142
-25 273 1320 107 107 107
-16 256 1234 151 151 151
-8 224 1076 6 6 6
-1 207 995 8 8 8
4 211 1014 238 238 238
9 206 987 9 9 9
17 237 1142 193 193 193
28 274 1327 167 167 167
39 301 1456 171 171 171
41 259 1251 9 9 9
49 262 1267 9 9 9
63 293 1420 130 130 130
75 306 1484 96 96 96
83 306 1481 101 101 101
89 296 1434 122 122 122
90 276 1335 114 114 114
100 283 1367 136 136 136
117 304 1473 110 110 110
123 297 1439 115 115 115
115 262 1266 10 10 10
123 263 1266 10 10 10
130 263 1269 9 9 9
151 287 1387 162 162 162
167 303 1462 111 111 111
163 281 1357 121 121 121
165 271 1305 121 121 121
170 266 1282 129 129 129
183 275 1323 144 144 144
184 266 1279 7 7 7
191 265 1271 9 9 9
218 291 1398 148 148 148
230 296 1422 137 137 137
242 300 1442 141 141 141
241 289 1387 143 143 143
239 277 1328 140 140 140
246 276 1320 125 125 125
249 270 1293 137 137 137
248 261 1248 192 192 192
262 268 1281 9 9 9
291 289 1382 176 176 176
298 289 1378 158 158 158
295 278 1325 168 168 168
308 282 1343 149 149 149
307 275 1306 151 151 151
313 273 1297 150 150 150
318 271 1284 142 142 142
323 269 1272 147 147 147
327 266 1257 177 177 177
369 293 1387 143 143 143
375 291 1374 143 143 143
388 294 1388 118 118 118
384 285 1343 139 139 139
383 279 1312 159 159 159
388 277 1298 156 156 156
392 274 1284 165 165 165
395 271 1266 179 179 179
396 267 1245 168 168 168
423 279 1301 154 154 154
439 284 1325 155 155 155
432 275 1279 187 187 187
447 279 1296 175 175 175
454 279 1292 164 164 164
458 276 1277 160 160 160
461 273 1263 157 157 157
464 270 1247 166 166 166
467 268 1232 172 172 172
471 266 1220 172 172 172
474 264 1207 173 173 173
476 260 1189 167 167 167
482 260 1184 159 159 159
482 256 1163 158 158 158
475 248 1126 173 173 173
473 244 1102 195 195 195
463 235 1062 205 205 205
470 236 1060 175 175 175
587 289 1304 94 94 94
645 313 1410 84 84 84
652 312 1404 67 67 67
656 310 1390 67 67 67
656 305 1367 71 71 71
656 302 1346 70 70 70
662 300 1336 75 75 75
670 300 1332 69 69 69
667 295 1305 76 76 76
661 289 1275 92 92 92
671 289 1273 82 82 82
676 288 1264 72 72 72
660 278 1215 101 101 101
657 273 1191 118 118 118
662 272 1183 116 116 116
667 271 1174 108 108 108
676 271 1172 90 90 90
-824 351 1441 38 38 38
-814 351 1444 37 37 37
-798 348 1437 32 32 32
-787 347 1438 36 36 36
-775 346 1438 38 38 38
-764 345 1439 38 38 38
-760 347 1453 39 39 39
-745 345 1447 40 40 40
-729 342 1438 40 40 40
-723 343 1447 40 40 40
-713 342 1449 42 42 42
-704 343 1455 44 44 44
-690 340 1448 42 42 42
-676 338 1441 39 39 39
-664 336 1438 40 40 40
-644 331 1419 39 39 39
-464 242 1034 124 124 124
-441 234 1000 218 218 218
-465 250 1071 159 159 159
-468 255 1097 142 142 142
-470 260 1121 136 136 136
-469 263 1139 135 135 135
-466 265 1151 137 137 137
-462 267 1161 144 144 144
-458 269 1174 147 147 147
-456 272 1188 144 144 144
-452 274 1200 147 147 147
-450 277 1217 149 149 149
-447 280 1233 136 136 136
-444 282 1247 127 127 127
-434 281 1244 148 148 148
-426 281 1244 166 166 166
-421 282 1254 146 146 146
-407 278 1238 147 147 147
-384 267 1191 178 178 178
-383 272 1213 165 165 165
-379 274 1224 167 167 167
-375 276 1239 167 167 167
-368 277 1243 171 171 171
-360 277 1244 190 190 190
-349 273 1231 6 6 6
-340 272 1228 6 6 6
-335 274 1238 6 6 6
-330 276 1250 6 6 6
-309 265 1198 187 187 187
-310 271 1232 180 180 180
-303 272 1234 186 186 186
-298 274 1246 174 174 174
-293 276 1259 178 178 178
-276 266 1216 8 8 8
-276 274 1254 7 7 7
-268 274 1252 179 179 179
-261 274 1253 6 6 6
-255 275 1263 147 147 147
-237 264 1212 159 159 159
-239 274 1259 135 135 135
-235 278 1279 130 130 130
-229 280 1289 127 127 127
-224 283 1308 107 107 107
-220 288 1331 96 96 96
-209 284 1313 109 109 109
-189 266 1232 6 6 6
-187 274 1268 162 162 162
-186 283 1313 106 106 106
-169 268 1242 148 148 148
-163 271 1256 123 123 123
-162 281 1308 118 118 118
-156 285 1326 152 152 152
-148 284 1325 167 167 167
-133 268 1249 7 7 7
-123 263 1224 9 9 9
-120 272 1269 8 8 8
-120 291 1359 108 108 108
-118 306 1432 106 106 106
-110 306 1431 104 104 104
-90 272 1270 123 123 123
-85 280 1312 93 93 93
-83 298 1395 73 73 73
-75 300 1409 74 74 74
-67 301 1413 85 85 85
-51 259 1214 12 12 12
-44 259 1215 13 13 13
-40 283 1329 135 135 135
-35 301 1416 83 83 83
-26 295 1387 80 80 80
-15 250 1169 164 164 164
-8 236 1104 207 207 207
-1 217 1011 8 8 8
4 216 1010 245 245 245
9 216 1008 9 9 9
19 259 1215 185 185 185
29 286 1346 173 173 173
37 294 1384 185 185 185
41 268 1259 7 7 7
49 271 1274 6 6 6
61 291 1367 141 141 141
70 296 1391 126 126 126
78 297 1399 124 124 124
85 292 1373 140 140 140
89 280 1316 125 125 125
101 293 1377 133 133 133
116 310 1459 115 115 115
121 301 1414 118 118 118
116 271 1272 9 9 9
121 266 1247 10 10 10
133 275 1291 8 8 8
149 292 1369 185 185 185
157 293 1373 173 173 173
162 287 1346 135 135 135
165 279 1305 121 121 121
169 272 1274 121 121 121
186 287 1344 129 129 129
188 279 1304 7 7 7
192 273 1275 8 8 8
223 306 1430 123 123 123
238 313 1466 103 103 103
246 313 1462 108 108 108
244 300 1399 134 134 134
241 287 1336 141 141 141
246 283 1318 121 121 121
246 275 1278 127 127 127
255 276 1282 185 185 185
260 274 1270 9 9 9
287 294 1363 182 182 182
293 292 1352 155 155 155
299 290 1341 166 166 166
311 294 1358 144 144 144
308 283 1309 151 151 151
313 281 1297 149 149 149
318 278 1282 138 138 138
320 274 1260 149 149 149
327 273 1256 6 6 6
366 299 1373 144 144 144
391 312 1433 101 101 101
409 319 1463 93 93 93
391 298 1366 129 129 129
384 287 1313 162 162 162
388 284 1297 159 159 159
389 280 1274 164 164 164
392 276 1254 168 168 168
398 276 1250 156 156 156
438 297 1347 125 125 125
441 294 1330 153 153 153
428 280 1265 8 8 8
439 282 1273 6 6 6
454 286 1290 178 178 178
459 284 1278 167 167 167
459 280 1255 164 164 164
464 278 1246 168 168 168
467 276 1231 169 169 169
472 274 1222 169 169 169
475 271 1207 174 174 174
478 269 1193 173 173 173
482 267 1182 165 165 165
482 263 1162 166 166 166
475 255 1125 176 176 176
473 251 1102 193 193 193
457 239 1046 208 208 208
472 243 1061 171 171 171
604 306 1340 93 93 93
641 320 1401 62 62 62
651 320 1400 49 49 49
659 320 1393 59 59 59
655 314 1363 66 66 66
655 309 1341 75 75 75
657 306 1324 82 82 82
660 304 1310 78 78 78
665 302 1300 78 78 78
664 298 1278 93 93 93
672 298 1274 79 79 79
672 295 1255 77 77 77
