439 -178 1535
451 -179 1543
458 -178 1534
463 -177 1518
468 -175 1503
467 -172 1469
456 -164 1405
483 -171 1458
484 -168 1433
453 -155 1314
495 -167 1411
539 -178 1507
549 -179 1509
561 -180 1512
571 -180 1511
582 -181 1512
588 -180 1501
600 -181 1506
610 -181 1504
619 -181 1500
630 -182 1502
639 -182 1499
647 -181 1492
655 -181 1486
666 -182 1485
671 -180 1472
670 -178 1446
671 -176 1426
681 -176 1425
683 -174 1407
686 -173 1391
689 -171 1375
687 -169 1351
697 -169 1349
696 -167 1327
705 -167 1324
701 -164 1297
701 -162 1278
708 -162 1271
694 -157 1227
-612 -124 1080
-614 -126 1101
-613 -127 1116
-613 -129 1132
-610 -130 1143
-609 -131 1159
-610 -133 1178
-610 -135 1196
-607 -136 1209
-606 -137 1226
-603 -139 1239
-593 -138 1237
-585 -138 1240
-602 -144 1298
-601 -146 1317
-540 -133 1200
-446 -110 1005
-487 -123 1117
-491 -126 1146
-502 -131 1192
-452 -119 1091
-473 -127 1161
-481 -131 1203
-482 -133 1227
-480 -135 1244
-476 -136 1255
-459 -133 1233
-467 -138 1278
-467 -140 1301
-445 -136 1263
-435 -135 1258
-429 -136 1266
-427 -138 1284
-401 -132 1229
-404 -135 1266
-401 -137 1283
-400 -139 1305
-394 -140 1313
-378 -137 1289
-366 -136 1275
-359 -136 1278
-346 -134 1259
-341 -134 1269
-329 -133 1254
-330 -136 1288
-328 -139 1316
-325 -141 1335
-310 -138 1304
-301 -137 1303
-296 -138 1314
-274 -132 1252
-271 -134 1274
-260 -132 1254
-254 -133 1266
-255 -137 1307
-237 -131 1252
-214 -122 1168
-199 -117 1124
-203 -124 1185
-207 -131 1251
-204 -134 1282
-202 -137 1315
-194 -138 1318
-189 -139 1333
-173 -133 1275
-179 -144 1379
-170 -143 1372
-166 -146 1403
-161 -150 1437
-145 -142 1363
-128 -133 1275
-120 -131 1261
-114 -133 1275
-117 -147 1408
-105 -141 1349
-96 -139 1331
-96 -152 1460
-89 -154 1479
-81 -155 1488
-71 -151 1446
-55 -132 1267
-48 -134 1285
-46 -150 1442
-36 -144 1378
-26 -132 1270
-19 -133 1278
-9 -109 1051
-3 -107 1034
2 -130 1246
11 -148 1415
20 -158 1514
29 -159 1519
38 -161 1537
47 -160 1530
55 -159 1515
63 -158 1508
72 -159 1514
80 -158 1502
89 -158 1508
99 -160 1524
109 -162 1537
118 -163 1549
127 -163 1544
135 -161 1530
143 -161 1523
152 -161 1525
158 -159 1502
169 -161 1523
180 -163 1537
189 -163 1538
197 -162 1531
205 -162 1522
213 -161 1516
221 -161 1512
229 -160 1507
238 -160 1506
251 -164 1534
262 -165 1544
270 -164 1536
274 -162 1511
283 -161 1507
293 -162 1512
301 -162 1509
309 -162 1503
321 -163 1516
333 -165 1530
341 -165 1526
348 -164 1516
358 -165 1519
369 -166 1526
380 -166 1529
389 -166 1528
398 -167 1528
413 -169 1546
423 -170 1550
433 -170 1551
443 -170 1552
455 -171 1557
462 -171 1547
465 -169 1526
470 -167 1508
473 -165 1489
443 -152 1366
483 -162 1459
483 -160 1431
441 -143 1280
482 -154 1374
538 -169 1506
549 -170 1507
560 -170 1510
568 -170 1504
582 -172 1514
589 -171 1505
599 -171 1503
611 -172 1509
618 -171 1498
630 -172 1503
636 -171 1491
645 -172 1489
657 -172 1490
665 -172 1485
671 -171 1474
670 -169 1449
671 -167 1428
679 -167 1422
680 -165 1400
680 -163 1380
682 -161 1363
689 -161 1354
695 -160 1347
714 -163 1364
703 -158 1322
703 -156 1301
699 -154 1275
706 -153 1269
694 -149 1230
-611 -117 1080
-611 -118 1096
-614 -120 1117
-615 -122 1136
-610 -122 1145
-612 -124 1166
-612 -126 1183
-611 -127 1199
-606 -128 1209
-608 -130 1230
-607 -132 1249
-591 -130 1235
-590 -131 1251
-603 -136 1301
-601 -138 1318
-517 -120 1150
-453 -106 1021
-490 -117 1126
-492 -119 1148
-493 -121 1171
-488 -122 1180
-484 -122 1190
-484 -125 1212
-483 -126 1229
-481 -128 1247
-478 -129 1263
-477 -131 1282
-475 -133 1300
-470 -134 1312
-441 -127 1254
-449 -132 1302
-448 -134 1323
-425 -130 1281
-407 -126 1250
-422 -134 1323
-421 -136 1347
-413 -136 1350
-407 -137 1358
-402 -138 1370
-392 -137 1366
-362 -129 1291
-355 -130 1294
-340 -127 1267
-329 -125 1255
-337 -132 1317
-327 -131 1313
-323 -132 1328
-306 -128 1289
-288 -124 1247
-285 -126 1268
-274 -124 1251
-271 -126 1275
-266 -128 1287
-253 -125 1262
-258 -131 1323
-255 -134 1351
-243 -132 1332
-231 -129 1303
-221 -128 1293
-217 -130 1316
-205 -127 1285
-201 -130 1313
-187 -125 1267
-183 -128 1296
-173 -126 1279
-171 -130 1316
-158 -126 1279
-148 -123 1255
-141 -124 1256
-137 -127 1286
-129 -126 1279
-121 -125 1274
-113 -125 1268
-106 -125 1272
-98 -124 1260
-93 -127 1293
-86 -129 1307
-78 -126 1286
-71 -127 1293
-63 -127 1286
-55 -125 1268
-48 -126 1279
-41 -126 1282
-34 -127 1292
-27 -129 1311
-18 -123 1251
-9 -102 1039
-3 -103 1046
2 -126 1278
11 -142 1434
20 -146 1476
28 -147 1487
37 -149 1506
46 -149 1504
55 -149 1507
63 -149 1509
72 -150 1515
80 -148 1497
89 -149 1506
98 -150 1513
108 -152 1531
116 -151 1523
125 -151 1519
133 -151 1515
142 -151 1515
152 -152 1525
159 -151 1508
168 -152 1517
180 -154 1544
189 -154 1542
197 -154 1537
204 -153 1521
213 -153 1521
221 -152 1513
232 -154 1529
241 -154 1527
255 -157 1556
264 -157 1554
272 -157 1550
280 -156 1541
286 -155 1527
295 -155 1523
304 -155 1525
312 -154 1518
328 -158 1549
339 -159 1558
345 -158 1544
350 -156 1525
357 -155 1514
366 -155 1513
375 -155 1510
384 -156 1511
392 -155 1505
409 -159 1535
420 -159 1537
429 -159 1536
442 -161 1548
449 -160 1536
456 -159 1528
464 -159 1523
467 -157 1499
467 -154 1469
457 -148 1410
481 -153 1455
483 -151 1431
443 -136 1288
486 -147 1384
540 -161 1512
550 -161 1511
561 -162 1514
570 -162 1511
579 -162 1508
589 -162 1505
600 -162 1508
607 -162 1498
618 -162 1499
627 -162 1496
638 -163 1496
649 -164 1499
658 -163 1493
667 -164 1491
670 -162 1473
671 -160 1451
670 -158 1425
670 -156 1402
675 -155 1392
680 -154 1381
693 -155 1385
685 -151 1349
698 -152 1353
707 -152 1350
702 -150 1320
697 -147 1291
695 -144 1268
715 -147 1287
708 -144 1254
-613 -110 1084
-610 -111 1095
-610 -112 1112
-612 -114 1131
-613 -115 1150
-612 -117 1166
-612 -118 1183
-608 -119 1195
-607 -120 1210
-604 -121 1223
-607 -124 1249
-595 -123 1243
-593 -124 1259
-602 -128 1300
-600 -129 1317
-521 -113 1159
-449 -99 1013
-473 -106 1087
-480 -109 1121
-482 -111 1144
-492 -115 1189
-491 -117 1207
-486 -118 1217
-483 -119 1231
-482 -120 1250
-479 -122 1265
-481 -124 1295
-479 -126 1314
-472 -126 1317
-451 -123 1283
-480 -133 1391
-446 -126 1319
-445 -128 1341
-405 -118 1244
-449 -134 1410
-470 -143 1509
-461 -143 1510
-451 -143 1510
-431 -139 1473
-424 -140 1481
-415 -140 1483
-377 -130 1378
-341 -120 1272
-334 -120 1277
-357 -131 1398
-369 -139 1483
-353 -137 1455
-344 -136 1453
-319 -130 1385
-292 -122 1301
-279 -119 1275
-275 -121 1295
-280 -127 1356
-253 -118 1263
-272 -130 1397
-272 -134 1442
-249 -127 1366
-238 -125 1348
-228 -124 1334
-219 -123 1329
-212 -124 1331
-200 -121 1306
-190 -120 1289
-187 -123 1322
-194 -133 1432
-185 -132 1427
-170 -127 1374
-163 -129 1386
-152 -125 1352
-138 -120 1301
-131 -120 1298
-121 -118 1274
-116 -121 1305
-109 -121 1307
-103 -123 1323
-94 -121 1307
-86 -120 1301
-77 -119 1284
-71 -121 1302
-62 -117 1262
-55 -118 1273
-47 -117 1268
-40 -118 1270
-33 -117 1260
-26 -118 1272
-18 -116 1252
-9 -97 1048
-3 -96 1038
2 -118 1273
12 -138 1485
20 -138 1486
29 -139 1494
37 -138 1481
46 -140 1500
54 -139 1496
63 -140 1506
72 -142 1516
80 -141 1504
89 -141 1509
98 -142 1513
109 -144 1537
116 -142 1513
124 -141 1509
133 -142 1512
142 -142 1516
152 -144 1529
159 -142 1506
168 -143 1516
174 -140 1491
186 -143 1517
194 -143 1512
204 -143 1518
213 -144 1521
222 -144 1523
232 -145 1526
239 -144 1515
251 -146 1532
258 -145 1520
267 -145 1523
277 -145 1525
285 -145 1522
294 -145 1521
306 -147 1534
313 -146 1525
330 -150 1559
344 -152 1580
353 -152 1580
358 -150 1559
361 -148 1529
367 -147 1518
377 -147 1521
386 -147 1519
398 -148 1527
412 -151 1545
421 -151 1542
429 -150 1535
439 -151 1539
447 -150 1533
452 -149 1515
463 -150 1520
471 -149 1513
473 -147 1491
446 -136 1377
478 -143 1446
482 -142 1429
456 -132 1325
486 -138 1386
539 -151 1508
550 -152 1513
559 -152 1510
571 -153 1513
580 -153 1511
589 -153 1506
599 -153 1505
607 -153 1500
618 -153 1501
631 -154 1505
637 -153 1496
647 -154 1494
658 -154 1494
664 -154 1484
671 -153 1476
669 -151 1448
671 -149 1428
666 -146 1395
674 -146 1390
680 -145 1380
689 -145 1378
686 -143 1350
697 -143 1351
698 -142 1333
703 -141 1324
696 -138 1291
694 -136 1267
710 -138 1278
709 -136 1257
-615 -103 1088
-610 -104 1096
-612 -105 1115
-614 -107 1137
-615 -109 1155
-613 -110 1169
-614 -111 1189
-609 -112 1197
-607 -113 1212
-606 -114 1229
-606 -116 1249
-598 -116 1251
-597 -117 1269
-601 -120 1297
-604 -122 1326
-547 -112 1220
-451 -93 1018
-489 -102 1123
-480 -102 1123
-483 -104 1150
-485 -106 1173
-486 -108 1197
-487 -110 1221
-484 -111 1233
-478 -112 1240
-481 -114 1270
-472 -114 1270
-476 -117 1305
-470 -118 1312
-448 -114 1273
-455 -118 1321
-434 -115 1283
-432 -116 1304
-410 -112 1261
-430 -120 1349
-443 -126 1422
-445 -130 1459
-448 -133 1498
-438 -133 1496
-418 -129 1459
-415 -131 1482
-380 -123 1388
-336 -110 1253
-341 -115 1304
-379 -131 1489
-379 -134 1523
-367 -133 1515
-361 -134 1526
-357 -136 1553
-327 -128 1460
-278 -111 1272
-273 -112 1286
-277 -117 1343
-258 -112 1285
-292 -132 1503
-284 -132 1508
-273 -131 1499
-250 -124 1416
-239 -122 1400
-229 -121 1390
-215 -118 1354
-207 -118 1354
-202 -120 1373
-187 -115 1322
-177 -114 1307
-195 -132 1512
-186 -131 1505
-177 -131 1503
-165 -128 1475
-136 -111 1283
-127 -110 1266
-126 -115 1330
-132 -129 1482
-124 -130 1498
-108 -122 1402
-103 -125 1434
-95 -126 1446
-88 -127 1457
-77 -124 1423
-68 -122 1403
-55 -110 1270
-48 -112 1296
-47 -129 1480
-38 -129 1481
-27 -118 1354
-18 -110 1266
-9 -89 1033
-3 -91 1048
2 -111 1275
11 -126 1442
20 -130 1491
29 -131 1504
37 -129 1480
46 -131 1501
55 -132 1505
63 -132 1507
73 -133 1523
81 -132 1506
90 -133 1512
99 -134 1528
107 -133 1517
115 -133 1510
124 -133 1514
133 -133 1512
143 -134 1522
153 -135 1534
159 -134 1515
168 -134 1512
181 -137 1550
186 -134 1513
194 -134 1512
203 -134 1511
212 -135 1516
225 -137 1540
233 -136 1531
240 -135 1519
249 -136 1524
256 -135 1510
266 -135 1513
276 -136 1521
285 -137 1523
294 -137 1523
308 -139 1546
314 -138 1531
331 -141 1567
341 -142 1571
348 -141 1558
358 -141 1558
364 -140 1543
362 -136 1498
373 -137 1504
385 -138 1515
394 -138 1514
404 -139 1515
416 -140 1525
433 -142 1550
441 -142 1545
449 -142 1541
457 -141 1532
464 -141 1523
474 -141 1524
473 -138 1491
445 -128 1372
479 -135 1448
476 -132 1413
447 -121 1300
491 -131 1401
540 -142 1513
553 -143 1521
562 -143 1518
567 -142 1504
581 -144 1513
591 -144 1512
598 -144 1504
607 -143 1500
618 -144 1502
630 -145 1504
638 -145 1499
648 -145 1497
658 -145 1496
662 -144 1481
672 -144 1478
669 -142 1449
671 -140 1429
670 -138 1404
680 -138 1403
684 -137 1390
688 -136 1376
690 -135 1359
697 -135 1353
696 -133 1331
703 -133 1323
696 -130 1290
704 -130 1287
711 -130 1280
707 -127 1254
-615 -96 1088
-615 -97 1105
-616 -99 1123
-613 -99 1134
-616 -101 1157
-614 -102 1170
-612 -103 1186
-608 -104 1195
-610 -106 1218
-609 -107 1236
-606 -108 1249
-600 -108 1255
-599 -110 1274
-597 -111 1290
-599 -113 1316
-525 -100 1171
-451 -87 1018
-483 -94 1111
-488 -97 1141
-490 -99 1167
-487 -100 1180
-484 -101 1191
-481 -102 1206
-480 -103 1224
-472 -103 1227
-466 -103 1231
-470 -106 1265
-464 -107 1274
-455 -106 1273
-446 -106 1269
-444 -108 1290
-443 -109 1311
-411 -103 1238
-405 -103 1247
-423 -110 1329
-419 -111 1345
-408 -111 1337
-400 -111 1338
-389 -110 1331
-380 -109 1327
-379 -111 1352
-365 -110 1335
-336 -103 1254
-326 -102 1248
-325 -104 1272
-321 -106 1290
-317 -107 1306
-313 -108 1323
-303 -108 1316
-300 -109 1336
-284 -106 1299
-272 -104 1280
-257 -101 1242
-244 -99 1216
-254 -107 1308
-260 -113 1383
-275 -123 1510
-250 -115 1418
-228 -109 1336
-217 -107 1319
-206 -106 1300
-200 -106 1311
-195 -108 1328
-180 -103 1275
-187 -113 1386
-194 -122 1503
-181 -119 1468
-176 -122 1498
-170 -124 1523
-146 -112 1378
-130 -105 1290
-125 -107 1316
-134 -123 1515
-128 -125 1538
-111 -117 1443
-109 -124 1520
-99 -123 1513
-90 -122 1502
-82 -123 1518
-70 -117 1436
-56 -105 1295
-50 -109 1342
-47 -121 1490
-39 -123 1508
-27 -110 1355
-17 -96 1190
-9 -83 1033
-3 -85 1047
3 -104 1276
11 -118 1453
20 -123 1505
29 -124 1522
38 -124 1519
46 -123 1502
55 -123 1508
63 -123 1503
73 -125 1527
81 -124 1513
90 -124 1512
98 -124 1512
107 -124 1509
117 -126 1536
127 -128 1551
133 -125 1516
143 -126 1527
153 -127 1537
160 -125 1521
169 -126 1525
178 -126 1527
187 -126 1524
195 -125 1515
204 -126 1518
215 -127 1535
228 -130 1561
235 -129 1547
247 -130 1565
254 -129 1550
257 -127 1516
266 -127 1515
274 -127 1512
287 -129 1534
301 -131 1557
311 -131 1559
315 -129 1535
331 -132 1568
339 -132 1560
347 -131 1553
355 -131 1546
357 -129 1517
338 -119 1397
347 -119 1400
374 -125 1472
392 -129 1508
402 -129 1509
411 -129 1506
420 -129 1507
443 -133 1551
450 -133 1542
456 -132 1531
465 -132 1527
472 -132 1520
476 -130 1501
455 -122 1404
478 -126 1446
477 -124 1415
446 -113 1296
495 -124 1414
541 -133 1517
553 -134 1521
563 -134 1520
569 -134 1509
582 -135 1516
591 -135 1514
599 -135 1508
608 -135 1504
618 -135 1502
628 -135 1501
638 -135 1500
649 -136 1500
657 -136 1494
667 -136 1491
672 -135 1479
671 -133 1453
672 -131 1432
678 -131 1422
682 -130 1409
686 -129 1395
684 -127 1370
685 -126 1349
695 -126 1349
700 -125 1338
700 -124 1318
697 -122 1293
708 -122 1294
706 -121 1271
709 -120 1258
-630 -91 1117
-621 -91 1116
-615 -91 1122
-613 -92 1136
-614 -94 1154
-612 -94 1167
-611 -96 1183
-611 -97 1203
-609 -98 1217
-609 -99 1237
-606 -100 1249
-604 -101 1266
-603 -102 1283
-608 -105 1315
-597 -104 1312
-507 -89 1130
-457 -81 1033
-483 -87 1111
-493 -91 1154
-493 -92 1175
-493 -94 1195
-492 -95 1213
-486 -95 1220
-481 -96 1228
-477 -97 1238
-474 -98 1255
-472 -99 1270
-470 -100 1291
-463 -100 1295
-446 -98 1271
-466 -105 1355
-478 -110 1415
-426 -99 1287
-409 -97 1259
-462 -112 1452
-470 -117 1512
-465 -117 1525
-451 -116 1511
-429 -113 1467
-408 -109 1428
-398 -109 1425
-373 -104 1364
-342 -98 1280
-338 -99 1293
-372 -112 1461
-365 -112 1470
-357 -112 1472
-343 -111 1453
-338 -112 1467
-328 -111 1462
-299 -104 1371
-278 -99 1310
-265 -97 1286
-249 -94 1244
-277 -108 1429
-283 -114 1505
-275 -114 1509
-247 -106 1400
-229 -101 1343
-219 -101 1333
-205 -98 1295
-199 -98 1300
-197 -101 1340
-177 -94 1253
-183 -102 1352
-182 -106 1407
-178 -109 1443
-158 -101 1346
-146 -99 1309
-138 -98 1296
-126 -95 1259
-123 -98 1300
-120 -102 1356
-113 -102 1361
-93 -90 1200
-91 -96 1275
-87 -100 1325
-83 -104 1384
-74 -103 1371
-67 -104 1382
-55 -96 1271
-50 -101 1339
-46 -111 1466
-37 -107 1423
-28 -104 1375
-17 -91 1214
-9 -78 1044
-3 -80 1070
3 -100 1328
11 -109 1445
20 -113 1488
29 -113 1492
38 -115 1513
46 -114 1497
55 -114 1505
63 -114 1499
73 -115 1517
81 -115 1512
89 -115 1508
100 -118 1541
108 -116 1526
116 -116 1522
124 -115 1510
131 -114 1487
145 -119 1549
153 -118 1538
163 -119 1553
170 -118 1536
180 -119 1544
192 -120 1564
198 -119 1544
207 -119 1541
217 -119 1546
227 -120 1554
235 -120 1546
238 -117 1511
254 -121 1555
261 -119 1537
272 -121 1552
277 -119 1529
290 -121 1550
302 -122 1564
309 -122 1553
311 -119 1517
330 -123 1563
333 -120 1532
340 -120 1522
348 -120 1519
322 -108 1368
325 -106 1342
334 -106 1347
355 -111 1396
396 -121 1523
405 -121 1520
410 -120 1504
425 -122 1525
442 -124 1549
451 -124 1547
457 -123 1535
467 -124 1536
473 -123 1524
474 -121 1493
453 -113 1399
478 -118 1448
474 -114 1407
457 -108 1330
499 -116 1425
541 -124 1518
551 -125 1517
560 -125 1513
570 -125 1514
580 -125 1512
589 -125 1510
599 -125 1507
608 -125 1504
616 -125 1499
627 -126 1500
639 -126 1501
647 -126 1495
658 -126 1496
665 -126 1487
673 -126 1482
669 -124 1450
672 -122 1433
675 -121 1416
675 -120 1395
684 -120 1392
687 -119 1376
687 -117 1354
700 -118 1359
703 -117 1345
700 -115 1319
701 -114 1302
705 -114 1290
704 -112 1269
706 -111 1254
-801 -108 1425
-771 -105 1391
-727 -100 1330
-688 -96 1276
-663 -93 1248
-637 -91 1217
-628 -91 1218
-622 -91 1224
-609 -90 1218
-607 -91 1234
-607 -92 1251
-604 -93 1265
-604 -95 1286
-603 -96 1304
-600 -97 1320
-495 -80 1102
-462 -76 1045
-486 -81 1119
-491 -83 1150
-496 -86 1182
-495 -87 1200
-491 -87 1210
-487 -88 1223
-482 -89 1231
-481 -90 1250
-476 -90 1260
-478 -92 1290
-476 -94 1307
-465 -93 1300
-447 -91 1274
-476 -99 1384
-482 -102 1430
-427 -92 1290
-410 -90 1262
-465 -104 1464
-464 -106 1491
-457 -106 1499
-448 -107 1503
-436 -106 1493
-422 -105 1478
-412 -104 1476
-367 -95 1342
-336 -88 1256
-338 -91 1295
-374 -104 1470
-368 -104 1484
-359 -104 1481
-350 -104 1483
-344 -105 1496
-334 -105 1490
-305 -98 1401
-273 -90 1286
-266 -90 1291
-255 -89 1272
-287 -103 1478
-281 -105 1498
-282 -109 1551
-264 -105 1500
-251 -103 1475
-239 -102 1455
-207 -91 1308
-194 -88 1270
-211 -100 1438
-182 -90 1291
-188 -97 1393
-196 -106 1519
-186 -105 1510
-168 -100 1432
-151 -94 1349
-141 -93 1332
-131 -91 1307
-128 -95 1359
-131 -103 1473
-125 -105 1506
-99 -89 1282
-100 -98 1407
-96 -102 1460
-86 -100 1436
-76 -98 1406
-65 -94 1344
-55 -89 1286
-52 -99 1414
-44 -97 1390
-35 -96 1375
-27 -93 1339
-17 -84 1203
-9 -70 1014
-3 -75 1079
3 -91 1311
11 -100 1434
20 -104 1479
29 -105 1492
38 -106 1517
46 -106 1505
55 -105 1499
63 -105 1499
72 -106 1504
80 -105 1495
89 -106 1505
98 -106 1508
108 -108 1529
119 -110 1555
125 -107 1518
133 -107 1514
142 -108 1519
152 -108 1528
161 -108 1526
171 -109 1540
178 -109 1526
186 -108 1520
195 -108 1521
203 -108 1516
214 -109 1531
225 -110 1544
233 -110 1538
241 -110 1527
247 -109 1512
256 -109 1511
267 -110 1525
276 -110 1524
291 -112 1555
301 -113 1557
309 -112 1551
309 -109 1507
330 -113 1563
338 -113 1556
346 -113 1548
349 -111 1522
341 -106 1446
331 -100 1370
335 -99 1352
356 -103 1403
388 -110 1491
406 -112 1525
416 -113 1527
430 -114 1543
443 -115 1552
451 -115 1546
458 -115 1539
467 -114 1534
472 -114 1521
473 -112 1491
453 -105 1399
481 -109 1457
474 -106 1406
456 -100 1327
503 -109 1437
539 -115 1512
549 -115 1513
560 -115 1514
571 -116 1515
581 -116 1516
590 -116 1511
601 -117 1513
609 -116 1507
620 -117 1508
630 -117 1506
639 -117 1502
646 -117 1495
659 -117 1498
669 -118 1497
670 -116 1475
672 -115 1455
668 -113 1425
665 -111 1396
673 -111 1390
680 -110 1383
690 -111 1382
685 -108 1351
698 -109 1357
692 -107 1325
700 -107 1319
699 -106 1297
707 -106 1293
700 -103 1262
690 -101 1226
-832 -103 1482
-820 -103 1481
-801 -101 1469
-784 -100 1457
-766 -99 1447
-750 -99 1438
-731 -97 1421
-692 -93 1366
-634 -86 1269
-633 -87 1287
-670 -94 1384
-652 -92 1369
-643 -92 1370
-625 -91 1353
-607 -90 1335
-482 -71 1074
-451 -68 1020
-490 -75 1129
-489 -76 1147
-495 -78 1181
-494 -79 1197
-490 -80 1210
-487 -81 1222
-484 -81 1237
-479 -82 1247
-476 -83 1262
-479 -85 1292
-475 -86 1305
-464 -85 1299
-437 -81 1245
-479 -91 1393
-484 -94 1436
-451 -89 1363
-408 -82 1256
-437 -90 1376
-458 -96 1473
-458 -98 1505
-447 -98 1500
-437 -97 1497
-428 -97 1498
-417 -97 1492
-375 -89 1371
-334 -80 1249
-336 -83 1287
-367 -93 1443
-369 -96 1489
-361 -96 1490
-353 -96 1497
-345 -97 1501
-334 -96 1491
-310 -91 1422
-271 -82 1279
-270 -84 1311
-257 -82 1285
-287 -95 1481
-282 -96 1502
-273 -96 1503
-263 -96 1497
-246 -93 1450
-238 -93 1449
-207 -83 1305
-199 -83 1307
-214 -93 1460
-185 -84 1310
-195 -93 1447
-195 -97 1510
-176 -91 1430
-159 -87 1357
-146 -83 1307
-135 -81 1275
-127 -81 1271
-125 -84 1322
-126 -91 1419
-122 -94 1469
-101 -83 1310
-103 -93 1450
-97 -94 1471
-89 -95 1489
-80 -95 1483
-69 -91 1427
-55 -82 1278
-52 -90 1409
-46 -94 1469
-37 -93 1446
-26 -83 1296
-17 -76 1198
-9 -65 1027
-3 -68 1075
3 -83 1298
12 -95 1474
20 -96 1488
29 -96 1498
38 -97 1506
46 -97 1498
55 -97 1500
63 -97 1497
72 -97 1499
79 -96 1479
89 -97 1503
98 -97 1505
108 -99 1534
116 -99 1522
124 -98 1514
132 -98 1506
142 -98 1513
152 -99 1524
159 -98 1510
170 -100 1529
176 -99 1509
186 -99 1515
194 -99 1513
203 -99 1511
212 -100 1516
222 -100 1522
232 -101 1527
240 -100 1521
257 -104 1573
262 -102 1546
268 -101 1529
276 -101 1520
285 -101 1522
297 -102 1537
308 -103 1546
315 -102 1537
331 -105 1566
339 -104 1561
346 -104 1549
356 -104 1553
359 -102 1524
353 -98 1460
363 -99 1464
383 -102 1509
396 -103 1524
405 -103 1521
415 -103 1522
431 -105 1547
443 -106 1556
451 -106 1549
459 -106 1541
467 -105 1536
473 -105 1523
471 -102 1485
457 -97 1413
481 -101 1457
474 -97 1407
443 -89 1289
507 -101 1449
539 -106 1512
549 -106 1513
560 -106 1514
570 -107 1515
581 -107 1514
590 -107 1511
600 -107 1510
610 -107 1509
621 -108 1512
631 -108 1509
638 -108 1501
650 -108 1504
660 -108 1502
669 -108 1498
672 -107 1480
671 -106 1456
671 -104 1431
670 -103 1407
674 -102 1393
684 -102 1391
688 -102 1378
686 -100 1354
696 -100 1352
695 -99 1330
704 -99 1327
698 -97 1296
701 -96 1283
687 -93 1238
678 -91 1204
-828 -93 1476
-814 -92 1470
-805 -93 1476
-786 -91 1463
-773 -91 1461
-764 -91 1465
-749 -91 1458
-740 -91 1462
-716 -89 1436
-707 -89 1440
-704 -90 1457
-695 -90 1460
-684 -89 1460
-668 -89 1449
-618 -83 1361
-463 -62 1032
-469 -64 1062
-489 -68 1127
-491 -69 1152
-494 -71 1179
-495 -72 1201
-490 -72 1210
-486 -73 1220
-482 -74 1232
-480 -75 1250
-476 -75 1261
-475 -76 1282
-473 -77 1299
-462 -77 1294
-447 -76 1274
-478 -83 1393
-481 -85 1428
-446 -80 1349
-407 -74 1256
-410 -76 1291
-412 -78 1324
-421 -81 1381
-438 -87 1468
-431 -87 1477
-422 -87 1478
-410 -86 1469
-354 -76 1295
-335 -73 1253
-332 -74 1271
-339 -78 1330
-347 -82 1399
-357 -86 1476
-350 -87 1484
-341 -87 1486
-333 -87 1488
-304 -82 1397
-265 -73 1248
-271 -77 1318
-258 -75 1289
-273 -82 1411
-279 -87 1488
-273 -88 1502
-264 -87 1500
-250 -86 1471
-236 -84 1440
-202 -74 1275
-196 -74 1283
-215 -86 1469
-185 -76 1311
-193 -83 1436
-194 -88 1509
-169 -80 1373
-151 -74 1285
-127 -65 1134
-120 -65 1135
-115 -66 1148
-123 -75 1300
-124 -81 1400
-118 -83 1429
-101 -76 1305
-103 -84 1450
-96 -86 1469
-89 -87 1485
-80 -87 1486
-67 -81 1390
-55 -75 1291
-53 -84 1434
-46 -87 1486
-38 -87 1481
-25 -74 1270
-17 -70 1205
-9 -59 1026
-3 -64 1103
3 -76 1296
12 -87 1481
20 -88 1493
29 -88 1500
38 -89 1512
46 -89 1510
55 -89 1512
63 -88 1502
72 -88 1496
79 -87 1483
89 -89 1504
99 -90 1519
108 -90 1525
116 -90 1521
124 -89 1510
133 -89 1507
141 -89 1508
149 -89 1498
156 -88 1485
169 -91 1524
178 -91 1528
186 -90 1514
194 -90 1510
203 -90 1512
212 -91 1512
221 -91 1513
228 -90 1505
238 -91 1512
250 -92 1532
260 -92 1533
267 -92 1525
276 -92 1522
284 -92 1519
294 -92 1521
307 -94 1540
313 -93 1525
332 -96 1573
339 -95 1562
348 -95 1559
356 -95 1554
366 -95 1553
367 -93 1519
375 -93 1513
387 -94 1525
395 -94 1520
404 -94 1518
414 -94 1520
432 -96 1550
445 -97 1561
452 -97 1550
458 -96 1539
466 -96 1532
472 -96 1522
473 -94 1493
470 -91 1452
480 -92 1453
480 -90 1426
453 -84 1320
508 -92 1452
538 -96 1511
550 -97 1516
559 -97 1512
569 -97 1511
580 -98 1512
591 -98 1515
597 -98 1504
609 -98 1508
621 -99 1512
630 -99 1508
642 -99 1511
648 -99 1499
658 -99 1498
667 -99 1493
675 -99 1488
672 -97 1458
671 -95 1432
675 -95 1418
681 -94 1408
686 -94 1396
684 -92 1371
688 -92 1359
695 -92 1352
695 -91 1331
703 -91 1325
703 -90 1307
695 -87 1272
687 -85 1239
682 -84 1212
-820 -83 1461
-811 -83 1467
-803 -83 1473
-790 -83 1470
-778 -82 1470
-764 -82 1465
-754 -82 1468
-744 -82 1471
-733 -82 1471
-718 -81 1463
-706 -81 1462
-695 -81 1462
-684 -80 1461
-669 -80 1452
-592 -71 1302
-446 -54 993
-471 -58 1068
-491 -61 1134
-492 -62 1155
-494 -64 1179
-492 -64 1193
-488 -65 1205
-486 -66 1222
-484 -66 1238
-480 -67 1249
-476 -68 1262
-471 -68 1271
-469 -69 1290
-457 -68 1281
-440 -67 1254
-438 -68 1275
-429 -68 1272
-404 -65 1220
-405 -66 1250
-404 -67 1272
-403 -69 1293
-399 -69 1309
-396 -70 1327
-391 -71 1339
-382 -71 1338
-377 -71 1349
-349 -67 1276
-342 -67 1281
-329 -66 1261
-331 -68 1300
-330 -70 1327
-325 -71 1344
-322 -72 1366
-326 -75 1417
-332 -78 1486
-288 -69 1322
-272 -67 1285
-270 -69 1314
-255 -67 1275
-262 -71 1351
-260 -73 1386
-266 -77 1462
-257 -77 1460
-245 -76 1442
-229 -73 1395
-203 -67 1281
-195 -67 1280
-213 -76 1456
-184 -68 1310
-186 -72 1378
-184 -75 1431
-166 -70 1345
-137 -61 1165
-128 -59 1145
-123 -60 1159
-113 -59 1128
-109 -60 1151
-119 -70 1341
-118 -74 1421
-100 -67 1291
-102 -75 1436
-97 -78 1480
-89 -79 1494
-80 -78 1487
-68 -73 1399
-54 -67 1274
-51 -72 1369
-46 -78 1482
-38 -77 1470
-26 -69 1316
-17 -61 1166
-9 -52 1011
-3 -58 1116
3 -72 1361
12 -78 1472
20 -78 1477
29 -79 1484
38 -79 1499
46 -79 1496
55 -80 1505
64 -80 1507
72 -80 1505
80 -80 1499
90 -81 1522
100 -82 1545
109 -82 1536
118 -82 1541
127 -83 1545
134 -82 1524
142 -81 1511
151 -81 1518
158 -81 1500
168 -82 1517
178 -82 1520
187 -82 1522
196 -82 1523
203 -82 1516
212 -82 1516
221 -82 1513
229 -82 1508
240 -83 1520
250 -83 1528
260 -84 1532
268 -84 1530
275 -83 1515
284 -83 1516
292 -83 1511
300 -83 1506
308 -83 1504
326 -85 1543
335 -85 1544
343 -85 1537
351 -85 1530
357 -84 1515
364 -84 1506
373 -84 1507
380 -84 1497
392 -84 1510
401 -84 1506
415 -85 1523
433 -87 1552
445 -88 1563
451 -87 1548
457 -87 1537
465 -87 1529
470 -86 1514
476 -86 1503
476 -84 1471
471 -82 1427
473 -81 1407
449 -75 1309
509 -84 1456
539 -87 1513
551 -88 1519
558 -88 1511
570 -88 1514
582 -89 1518
590 -89 1512
598 -88 1507
610 -89 1512
619 -89 1506
633 -90 1515
640 -89 1507
651 -90 1506
657 -89 1496
667 -90 1495
672 -89 1482
671 -88 1456
673 -87 1436
671 -85 1410
675 -85 1396
678 -84 1381
683 -84 1369
686 -83 1354
698 -84 1357
702 -83 1345
703 -82 1326
701 -81 1303
687 -78 1257
698 -79 1259
686 -76 1219
-826 -74 1473
-811 -73 1468
-801 -73 1471
-792 -73 1475
-778 -73 1471
-767 -73 1472
-754 -73 1468
-746 -73 1476
-734 -72 1473
-717 -72 1461
-708 -72 1466
-696 -72 1464
-682 -71 1456
-670 -71 1453
-572 -61 1260
-460 -49 1026
-477 -52 1081
-493 -54 1138
-494 -55 1160
-493 -56 1176
-490 -57 1189
-489 -58 1207
-486 -58 1222
-484 -59 1239
-480 -59 1251
-478 -60 1268
-476 -61 1286
-470 -61 1294
-457 -61 1280
-438 -59 1250
-449 -62 1306
-436 -61 1295
-418 -59 1263
-406 -59 1253
-402 -60 1266
-412 -62 1325
-398 -61 1306
-393 -62 1317
-374 -60 1280
-363 -60 1272
-356 -60 1273
-344 -59 1260
-342 -60 1280
-329 -59 1263
-329 -60 1291
-324 -61 1306
-318 -61 1311
-296 -58 1252
-292 -59 1268
-282 -58 1258
-277 -59 1271
-270 -59 1276
-262 -59 1271
-257 -60 1285
-254 -61 1309
-246 -61 1311
-233 -60 1283
-224 -59 1274
-217 -59 1276
-213 -60 1298
-202 -59 1276
-193 -59 1266
-191 -60 1300
-179 -59 1271
-179 -62 1330
-175 -63 1359
-163 -61 1321
-139 -55 1185
-128 -53 1145
-123 -54 1159
-112 -52 1121
-111 -54 1173
-116 -61 1316
-113 -64 1369
-98 -59 1272
-97 -63 1360
-93 -66 1423
-84 -65 1401
-81 -70 1492
-66 -63 1360
-54 -59 1271
-50 -63 1343
-44 -66 1399
-36 -67 1419
-25 -60 1282
-16 -53 1145
-9 -47 1016
-3 -52 1118
3 -66 1403
12 -69 1473
20 -70 1479
29 -71 1494
38 -71 1498
46 -71 1500
55 -71 1496
63 -71 1500
72 -71 1501
81 -72 1511
91 -73 1531
100 -73 1540
108 -72 1520
115 -71 1498
124 -72 1508
135 -74 1537
142 -73 1515
152 -73 1526
158 -72 1501
168 -73 1513
177 -73 1512
185 -73 1509
194 -73 1511
203 -73 1515
213 -73 1519
221 -73 1518
231 -74 1520
240 -74 1520
249 -74 1520
257 -74 1517
267 -74 1522
276 -74 1521
284 -74 1520
294 -75 1522
305 -75 1534
312 -75 1519
323 -75 1531
332 -75 1528
340 -75 1524
347 -75 1512
357 -75 1515
364 -75 1509
375 -76 1516
382 -75 1506
396 -76 1524
405 -76 1522
417 -77 1530
428 -77 1537
436 -77 1530
443 -77 1520
452 -77 1518
463 -77 1522
470 -77 1513
475 -77 1500
479 -76 1481
477 -74 1445
475 -72 1411
453 -68 1320
512 -76 1466
538 -78 1512
549 -79 1513
558 -79 1511
569 -79 1511
580 -79 1514
590 -79 1513
600 -80 1512
610 -80 1511
620 -80 1509
630 -80 1509
637 -80 1500
649 -80 1503
657 -80 1496
667 -80 1494
671 -80 1479
671 -79 1457
667 -77 1423
665 -76 1398
672 -76 1390
676 -75 1376
688 -76 1380
683 -74 1348
699 -75 1359
708 -75 1356
703 -74 1327
693 -72 1289
687 -70 1258
701 -71 1265
690 -69 1227
-826 -64 1474
-812 -64 1470
-800 -64 1470
-789 -64 1471
-777 -64 1470
-768 -64 1474
-755 -63 1471
-743 -63 1470
-731 -63 1469
-720 -63 1468
-709 -63 1468
-693 -62 1458
-680 -62 1453
-670 -62 1454
-558 -52 1229
-450 -42 1002
-475 -45 1077
-496 -48 1145
-495 -48 1163
-495 -49 1182
-493 -50 1197
-492 -51 1215
-486 -51 1221
-484 -51 1238
-481 -52 1254
-479 -53 1272
-477 -53 1290
-474 -54 1306
-453 -52 1270
-437 -51 1247
-478 -58 1393
-484 -60 1437
-408 -51 1234
-414 -53 1278
-409 -53 1288
-409 -54 1316
-407 -55 1336
-410 -57 1377
-421 -59 1443
-406 -59 1423
-409 -60 1467
-350 -52 1281
-338 -52 1267
-337 -53 1294
-334 -54 1312
-329 -54 1325
-328 -55 1354
-322 -56 1365
-303 -54 1319
-306 -56 1368
-275 -51 1264
-271 -52 1279
-262 -52 1274
-264 -54 1325
-258 -54 1334
-256 -56 1363
-234 -52 1284
-237 -55 1346
-221 -53 1303
-208 -52 1268
-197 -50 1243
-196 -52 1285
-189 -52 1289
-180 -52 1283
-179 -54 1330
-173 -55 1341
-158 -52 1283
-143 -49 1216
-129 -47 1154
-121 -46 1141
-117 -47 1166
-118 -51 1247
-112 -52 1268
-110 -54 1328
-97 -52 1266
-91 -52 1275
-83 -52 1267
-76 -52 1278
-69 -52 1280
-60 -51 1250
-54 -52 1268
-46 -51 1258
-39 -52 1260
-32 -52 1265
-25 -52 1274
-16 -45 1111
-9 -41 1010
-3 -45 1114
3 -59 1417
12 -61 1479
20 -62 1489
29 -62 1498
38 -63 1526
46 -62 1500
55 -63 1502
64 -63 1506
72 -63 1503
82 -64 1534
91 -64 1540
99 -64 1521
100 -59 1412
102 -56 1337
113 -57 1374
133 -63 1507
145 -65 1548
153 -65 1536
159 -64 1506
168 -64 1516
175 -63 1498
185 -64 1512
193 -64 1506
203 -64 1515
213 -65 1524
223 -65 1528
231 -65 1519
240 -65 1520
250 -65 1527
257 -65 1519
266 -65 1517
276 -66 1521
284 -66 1518
294 -66 1520
306 -67 1538
313 -66 1526
322 -66 1523
328 -66 1512
340 -66 1523
349 -67 1523
356 -66 1513
366 -67 1516
378 -67 1525
385 -67 1517
391 -66 1506
401 -67 1506
414 -67 1520
430 -69 1543
440 -69 1544
449 -69 1540
454 -68 1525
463 -68 1524
470 -68 1513
475 -68 1500
479 -67 1482
478 -65 1448
474 -64 1408
457 -60 1332
513 -67 1469
538 -69 1512
548 -69 1512
558 -69 1510
568 -70 1511
578 -70 1510
591 -70 1517
600 -70 1511
612 -71 1516
619 -71 1507
629 -71 1506
640 -71 1507
650 -71 1505
657 -71 1497
666 -71 1491
672 -71 1482
670 -70 1454
666 -68 1422
666 -67 1400
673 -67 1392
682 -67 1389
687 -67 1377
687 -66 1358
697 -66 1355
691 -65 1323
705 -65 1331
692 -63 1287
692 -63 1267
702 -63 1268
689 -61 1225
-821 -55 1465
-810 -54 1467
-806 -55 1480
-789 -54 1471
-780 -54 1476
-766 -54 1471
-754 -54 1469
-743 -54 1470
-732 -54 1471
-718 -54 1464
-708 -54 1467
-698 -53 1468
-684 -53 1463
-672 -53 1459
-577 -46 1270
-460 -36 1027
-442 -35 1001
-488 -40 1127
-499 -42 1172
-498 -42 1189
-497 -43 1208
-491 -43 1214
-491 -44 1235
-487 -44 1246
-482 -45 1257
-477 -45 1265
-477 -46 1289
-473 -46 1302
-461 -46 1293
-447 -45 1277
-468 -48 1363
-489 -52 1453
-416 -44 1260
-408 -44 1261
-411 -45 1294
-411 -47 1324
-408 -47 1340
-423 -50 1420
-430 -52 1475
-418 -52 1467
-411 -52 1475
-352 -45 1289
-340 -44 1274
-339 -45 1301
-336 -46 1322
-329 -46 1326
-336 -49 1392
-330 -49 1401
-299 -46 1303
-342 -54 1530
-292 -47 1342
-276 -46 1304
-267 -45 1298
-262 -46 1314
-268 -48 1383
-264 -49 1409
-268 -52 1476
-263 -53 1500
-252 -52 1489
-242 -52 1479
-202 -44 1275
-198 -45 1299
-209 -50 1426
-184 -46 1307
-190 -50 1415
-182 -50 1414
-162 -46 1319
-149 -44 1267
-142 -45 1276
-136 -45 1283
-128 -45 1283
-120 -45 1275
-115 -46 1302
-112 -48 1354
-98 -45 1279
-97 -48 1358
-92 -50 1406
-80 -47 1346
-72 -47 1327
-61 -45 1269
-54 -45 1268
-47 -45 1277
-41 -46 1304
-33 -45 1279
-25 -45 1274
-16 -39 1111
-9 -35 1014
-3 -40 1151
3 -52 1449
12 -53 1480
21 -54 1512
29 -54 1512
38 -54 1516
46 -53 1487
55 -54 1497
64 -55 1516
72 -54 1507
82 -55 1536
91 -55 1528
98 -54 1501
98 -50 1387
105 -49 1368
113 -50 1376
130 -54 1482
146 -57 1562
154 -56 1543
160 -55 1518
171 -56 1544
178 -56 1523
187 -56 1522
194 -55 1509
203 -56 1511
216 -57 1543
226 -57 1550
231 -56 1522
241 -57 1527
247 -56 1513
257 -56 1517
266 -57 1518
276 -57 1525
290 -58 1547
299 -58 1549
307 -58 1540
316 -58 1543
322 -57 1524
330 -57 1520
339 -57 1519
348 -57 1517
359 -58 1525
370 -58 1533
380 -59 1537
386 -58 1520
394 -58 1516
400 -58 1502
413 -58 1518
430 -59 1542
440 -60 1546
449 -60 1541
456 -60 1533
464 -59 1527
469 -59 1512
474 -59 1498
477 -58 1477
479 -57 1452
472 -55 1403
460 -53 1340
515 -58 1473
537 -60 1508
549 -60 1513
556 -60 1506
567 -60 1507
579 -61 1512
589 -61 1510
601 -61 1514
612 -62 1516
619 -61 1508
629 -61 1505
642 -62 1511
649 -62 1504
658 -62 1500
669 -62 1500
670 -61 1478
668 -60 1450
670 -60 1430
681 -60 1431
679 -59 1406
680 -58 1385
682 -58 1369
688 -58 1360
696 -58 1354
690 -56 1323
702 -57 1325
693 -55 1289
696 -55 1274
703 -55 1269
686 -53 1220
-828 -46 1478
-812 -45 1471
-802 -45 1473
-789 -45 1471
-779 -45 1475
-767 -45 1473
-754 -45 1471
-746 -45 1478
-730 -45 1467
-719 -44 1467
-709 -44 1470
-698 -44 1470
-686 -44 1467
-673 -44 1462
-633 -42 1397
-478 -31 1067
-447 -29 1013
-446 -30 1029
-494 -34 1160
-484 -34 1156
-485 -35 1180
-485 -35 1200
-482 -36 1212
-484 -36 1239
-481 -37 1255
-478 -37 1270
-473 -38 1278
-416 -33 1143
-426 -35 1195
-426 -35 1218
-426 -36 1240
-426 -37 1265
-415 -37 1256
-410 -37 1267
-410 -38 1291
-408 -38 1314
-404 -39 1329
-411 -40 1379
-402 -40 1381
-387 -40 1357
-410 -43 1471
-347 -37 1271
-334 -36 1254
-338 -38 1300
-332 -38 1305
-330 -39 1329
-328 -40 1357
-332 -41 1408
-291 -37 1266
-308 -40 1377
-287 -38 1320
-276 -38 1306
-265 -37 1287
-265 -39 1327
-264 -40 1364
-263 -41 1402
-271 -44 1497
-263 -44 1499
-251 -44 1483
-234 -42 1432
-201 -37 1271
-206 -40 1356
-212 -43 1452
-181 -38 1289
-192 -42 1429
-184 -42 1432
-174 -41 1413
-161 -40 1377
-148 -39 1329
-138 -38 1303
-129 -38 1291
-129 -40 1376
-124 -41 1404
-116 -41 1406
-99 -38 1291
-103 -43 1456
-97 -44 1483
-88 -44 1478
-80 -44 1485
-62 -38 1282
-54 -37 1258
-52 -42 1412
-46 -44 1468
-36 -42 1415
-25 -38 1286
-16 -32 1098
-9 -29 1007
-3 -34 1164
3 -43 1440
12 -44 1475
20 -45 1481
29 -44 1475
38 -45 1493
46 -45 1491
54 -45 1490
63 -45 1500
72 -46 1509
82 -47 1533
91 -47 1533
98 -46 1510
96 -41 1356
103 -41 1343
111 -41 1344
131 -45 1486
147 -48 1563
153 -47 1538
159 -47 1511
167 -46 1501
178 -47 1525
183 -46 1491
193 -47 1503
202 -47 1501
216 -48 1543
227 -48 1553
232 -48 1528
237 -47 1506
250 -48 1527
262 -49 1545
268 -48 1531
276 -48 1521
290 -49 1551
300 -49 1551
306 -49 1539
312 -48 1522
324 -49 1537
331 -49 1525
340 -49 1525
352 -49 1536
366 -50 1556
374 -50 1548
380 -50 1537
386 -49 1521
394 -49 1515
404 -49 1519
414 -50 1522
432 -51 1549
440 -51 1547
446 -50 1533
455 -50 1529
461 -50 1516
468 -50 1507
475 -50 1500
478 -49 1480
481 -49 1457
471 -47 1399
462 -45 1347
516 -50 1476
535 -51 1503
547 -51 1508
557 -51 1508
568 -51 1511
578 -52 1509
589 -52 1510
601 -52 1515
611 -52 1514
620 -52 1511
630 -52 1510
640 -52 1507
650 -53 1505
657 -52 1496
667 -53 1495
673 -52 1483
670 -51 1455
670 -51 1432
671 -50 1410
675 -50 1397
679 -50 1384
680 -49 1364
684 -49 1352
690 -49 1342
692 -48 1327
700 -48 1321
692 -47 1288
693 -47 1269
699 -46 1263
687 -45 1222
-826 -36 1475
-812 -36 1470
-803 -36 1475
-791 -36 1476
-780 -36 1477
-763 -35 1466
-752 -35 1468
-741 -35 1467
-731 -35 1469
-719 -35 1468
-708 -35 1467
-696 -35 1465
-687 -35 1470
-671 -35 1459
-650 -34 1435
-501 -26 1119
-448 -23 1016
-445 -24 1027
-422 -22 988
-423 -23 1009
-417 -23 1010
-406 -23 1002
-410 -23 1028
-405 -24 1035
-401 -24 1043
-398 -24 1055
-391 -24 1054
-377 -24 1035
-395 -25 1106
-398 -26 1135
-400 -27 1163
-398 -27 1180
-396 -28 1199
-396 -28 1224
-401 -29 1263
-399 -30 1284
-397 -30 1305
-355 -27 1191
-354 -28 1212
-354 -29 1240
-346 -29 1238
-346 -29 1267
-326 -28 1224
-326 -29 1254
-324 -30 1277
-321 -30 1294
-314 -30 1299
-305 -30 1293
-293 -30 1275
-262 -27 1170
-274 -29 1261
-269 -29 1270
-266 -30 1293
-264 -31 1323
-259 -31 1341
-254 -32 1357
-260 -34 1436
-246 -33 1405
-238 -33 1402
-223 -32 1365
-203 -30 1284
-199 -31 1308
-198 -32 1356
-182 -30 1296
-186 -33 1386
-177 -32 1377
-171 -33 1392
-164 -33 1399
-147 -31 1322
-138 -31 1310
-131 -31 1316
-127 -32 1348
-121 -32 1372
-106 -30 1286
-100 -31 1300
-102 -34 1437
-97 -35 1479
-87 -35 1469
-78 -35 1456
-62 -30 1284
-54 -30 1275
-54 -35 1467
-45 -35 1465
-35 -33 1372
-24 -29 1230
-15 -24 1034
-8 -23 1002
-3 -28 1169
3 -34 1403
12 -36 1466
20 -36 1472
29 -36 1480
38 -37 1493
46 -36 1480
54 -36 1483
63 -36 1486
72 -37 1492
81 -37 1507
91 -38 1525
100 -38 1538
107 -37 1506
113 -37 1475
122 -37 1483
135 -38 1539
146 -39 1558
152 -38 1529
158 -38 1502
167 -38 1506
176 -38 1504
185 -38 1504
192 -38 1496
202 -38 1504
218 -40 1557
227 -40 1558
231 -39 1521
244 -40 1550
248 -39 1516
256 -39 1513
265 -39 1513
275 -39 1520
292 -40 1558
300 -40 1553
306 -40 1539
311 -39 1517
321 -40 1522
328 -39 1509
340 -40 1523
355 -41 1547
366 -41 1555
373 -41 1545
381 -41 1540
388 -41 1530
388 -40 1493
402 -40 1509
404 -39 1482
432 -42 1553
439 -41 1541
446 -41 1533
456 -41 1532
462 -41 1519
467 -41 1506
475 -41 1501
477 -40 1476
479 -40 1451
466 -38 1384
469 -37 1367
517 -41 1480
533 -42 1497
547 -42 1508
556 -42 1506
568 -42 1511
575 -42 1501
589 -43 1510
599 -43 1509
610 -43 1512
619 -43 1509
630 -43 1508
637 -43 1500
649 -43 1503
657 -43 1497
665 -43 1491
671 -43 1479
669 -42 1453
666 -42 1422
664 -41 1395
670 -41 1386
673 -40 1372
689 -41 1382
679 -40 1342
694 -40 1350
702 -40 1345
703 -40 1328
689 -39 1281
692 -38 1268
700 -38 1263
685 -37 1218
-826 -26 1475
-816 -27 1478
-802 -26 1474
-790 -26 1475
-778 -26 1473
-769 -26 1477
-751 -26 1464
-739 -26 1464
-731 -26 1471
-719 -26 1468
-709 -26 1470
-697 -26 1468
-686 -26 1468
-672 -26 1461
-663 -26 1465
-625 -25 1403
-481 -19 1094
-456 -18 1053
-431 -17 1012
-427 -17 1018
-410 -16 993
-401 -16 990
-395 -16 992
-401 -17 1023
-387 -17 1005
-383 -17 1014
-378 -17 1018
-361 -16 992
-357 -17 999
-349 -16 993
-348 -17 1011
-341 -17 1011
-331 -17 1000
-328 -17 1009
-316 -16 992
-313 -17 1004
-309 -17 1012
-301 -17 1007
-300 -17 1026
-290 -17 1015
-288 -17 1028
-279 -17 1019
-273 -17 1022
-265 -17 1013
-264 -17 1036
-257 -17 1032
-255 -18 1050
-247 -18 1043
-241 -18 1048
-235 -18 1046
-235 -18 1078
-229 -18 1080
-230 -19 1116
-238 -21 1191
-236 -21 1218
-232 -22 1238
-205 -19 1127
-203 -20 1155
-199 -20 1168
-189 -20 1153
-183 -20 1158
-180 -20 1181
-176 -21 1204
-164 -20 1168
-163 -21 1210
-171 -24 1326
-158 -23 1285
-144 -22 1228
-141 -22 1270
-126 -21 1196
-127 -23 1272
-119 -22 1266
-112 -23 1269
-104 -22 1257
-101 -24 1321
-93 -24 1311
-90 -25 1372
-82 -25 1376
-74 -25 1376
-62 -23 1294
-55 -23 1292
-53 -27 1452
-43 -25 1374
-31 -22 1212
-21 -19 1076
-14 -17 1000
-8 -17 1000
-3 -22 1237
3 -23 1269
12 -27 1469
21 -28 1495
29 -28 1480
38 -28 1492
46 -28 1493
55 -28 1491
64 -28 1508
73 -29 1513
80 -28 1484
90 -29 1518
101 -30 1552
109 -30 1544
118 -30 1542
127 -29 1537
134 -29 1523
145 -30 1545
152 -29 1525
158 -29 1504
168 -29 1509
176 -29 1504
184 -29 1499
192 -29 1491
202 -29 1505
218 -31 1555
227 -31 1557
230 -30 1513
240 -30 1523
248 -30 1519
255 -30 1506
265 -30 1513
276 -30 1523
292 -31 1560
301 -31 1558
310 -31 1558
311 -31 1517
321 -31 1520
329 -31 1514
337 -31 1512
353 -31 1540
367 -32 1558
375 -32 1553
381 -32 1538
385 -31 1517
394 -31 1517
401 -31 1508
412 -32 1513
430 -32 1544
440 -32 1544
447 -32 1535
456 -32 1531
462 -32 1519
468 -32 1507
475 -32 1501
478 -32 1478
480 -31 1455
466 -30 1384
470 -29 1369
515 -32 1474
537 -33 1507
545 -33 1503
556 -33 1505
566 -33 1505
578 -33 1510
587 -33 1505
598 -34 1507
610 -34 1511
618 -34 1506
632 -34 1513
636 -34 1498
647 -34 1498
655 -34 1494
667 -34 1496
671 -34 1480
668 -33 1451
666 -33 1423
666 -32 1401
671 -32 1388
676 -32 1377
690 -32 1384
678 -31 1341
696 -32 1354
692 -31 1326
701 -31 1323
689 -30 1281
692 -30 1269
695 -30 1255
672 -29 1196
-826 -17 1475
-817 -17 1480
-803 -17 1477
-791 -17 1475
-782 -17 1480
-769 -17 1479
-755 -17 1473
-741 -17 1467
-729 -17 1466
-722 -17 1475
-707 -17 1467
-694 -17 1461
-684 -17 1464
-674 -17 1465
-663 -17 1464
-616 -16 1381
-470 -11 1068
-448 -11 1035
-433 -11 1017
-425 -11 1013
-417 -11 1012
-412 -11 1016
-402 -11 1010
-397 -11 1013
-391 -11 1016
-388 -11 1028
-365 -10 984
-370 -11 1016
-363 -11 1016
-360 -11 1026
-345 -11 1001
-339 -11 1004
-336 -11 1014
-330 -11 1017
-324 -11 1019
-312 -11 999
-299 -10 980
-301 -11 1008
-287 -10 981
-286 -11 997
-282 -11 1007
-275 -11 1006
-267 -11 998
-266 -11 1018
-257 -11 1007
-251 -11 1008
-245 -11 1009
-244 -11 1030
-235 -11 1021
-229 -11 1021
-220 -11 1009
-217 -11 1024
-209 -11 1016
-201 -11 1004
-196 -11 1011
-191 -11 1017
-184 -11 1007
-180 -11 1020
-173 -11 1014
-166 -11 1012
-159 -11 1005
-155 -11 1015
-145 -11 990
-143 -11 1013
-135 -11 999
-132 -11 1018
-126 -11 1017
-120 -11 1016
-113 -11 1010
-109 -12 1031
-103 -12 1031
-99 -12 1046
-92 -12 1040
-84 -11 1008
-81 -12 1053
-76 -12 1064
-69 -12 1051
-64 -13 1075
-58 -13 1080
-52 -13 1075
-46 -13 1073
-41 -13 1115
-33 -13 1071
-27 -12 1041
-20 -12 1001
-14 -12 995
-10 -14 1172
-3 -16 1293
3 -16 1275
10 -16 1269
18 -16 1300
26 -17 1325
34 -17 1352
42 -17 1350
50 -17 1353
62 -19 1456
70 -19 1463
77 -19 1434
86 -19 1438
99 -20 1522
109 -21 1535
118 -21 1536
120 -19 1458
134 -21 1520
140 -20 1494
148 -20 1481
159 -21 1513
171 -21 1539
177 -21 1512
186 -21 1515
194 -21 1513
205 -21 1524
215 -21 1534
224 -21 1538
232 -21 1530
242 -22 1536
246 -21 1504
255 -21 1508
263 -21 1500
276 -22 1525
291 -22 1555
301 -22 1560
306 -22 1538
317 -22 1546
320 -22 1515
328 -22 1510
336 -22 1504
354 -23 1544
367 -23 1560
375 -23 1554
381 -23 1538
399 -23 1573
393 -22 1513
403 -23 1514
418 -23 1534
431 -23 1547
441 -23 1547
447 -23 1537
455 -23 1529
463 -23 1522
469 -23 1511
474 -23 1498
478 -23 1478
478 -22 1449
461 -21 1369
472 -21 1375
517 -23 1479
535 -24 1502
545 -24 1501
556 -24 1506
567 -24 1506
578 -24 1510
587 -24 1506
598 -24 1508
610 -25 1511
615 -24 1498
627 -25 1502
638 -25 1502
650 -25 1506
657 -25 1497
666 -25 1494
672 -25 1483
667 -24 1447
668 -24 1426
674 -24 1417
675 -24 1397
681 -24 1387
686 -23 1376
683 -23 1350
697 -23 1356
693 -23 1328
699 -23 1320
683 -22 1270
694 -22 1271
693 -22 1252
693 -22 1233
-823 -8 1469
-813 -8 1474
-805 -8 1481
-792 -8 1477
-781 -8 1478
-766 -8 1472
-752 -8 1467
-741 -8 1468
-730 -8 1469
-718 -8 1467
-707 -8 1467
-696 -8 1466
-685 -8 1465
-672 -8 1461
-652 -8 1441
-477 -5 1066
-435 -4 987
-435 -4 1003
-435 -4 1020
-427 -4 1019
-419 -4 1017
-407 -4 1005
-401 -4 1007
-396 -5 1011
-388 -5 1009
-378 -4 1001
-377 -5 1016
-365 -5 1002
-364 -5 1019
-356 -5 1016
-348 -5 1011
-338 -5 1001
-341 -5 1029
-334 -5 1030
-320 -5 1005
-316 -5 1012
-310 -5 1016
-300 -5 1004
-295 -5 1009
-286 -5 999
-286 -5 1021
-277 -5 1012
-269 -5 1005
-265 -5 1015
-255 -5 1001
-255 -5 1027
-245 -5 1011
-237 -5 1002
-234 -5 1017
-229 -5 1020
-220 -5 1007
-211 -5 995
-211 -5 1026
-206 -5 1031
-198 -5 1021
-188 -5 1000
-183 -5 1003
-180 -5 1024
-169 -5 994
-168 -5 1025
-160 -5 1013
-154 -5 1009
-151 -6 1027
-142 -5 1005
-135 -5 997
-130 -5 1009
-122 -5 992
-120 -6 1020
-115 -6 1027
-106 -6 1000
-102 -6 1016
-95 -6 1003
-89 -6 1009
-83 -6 1004
-78 -6 1010
-72 -6 1016
-66 -6 1004
-60 -6 1007
-54 -6 1006
-49 -6 1004
-42 -6 988
-37 -6 1009
-31 -6 999
-25 -6 978
-20 -6 998
-15 -7 1102
-10 -8 1247
-4 -10 1410
3 -9 1341
11 -9 1313
18 -9 1297
25 -9 1273
32 -9 1269
40 -9 1288
47 -9 1277
55 -9 1296
63 -9 1315
69 -9 1279
79 -10 1329
85 -10 1308
92 -9 1301
100 -10 1302
107 -10 1302
117 -10 1329
128 -10 1360
134 -10 1344
140 -10 1332
151 -10 1358
156 -10 1330
167 -11 1358
174 -11 1355
184 -11 1367
187 -10 1336
198 -11 1356
206 -11 1358
224 -11 1417
236 -12 1440
235 -11 1385
249 -12 1422
274 -13 1514
289 -13 1545
300 -13 1552
298 -13 1499
305 -13 1486
315 -13 1490
324 -13 1493
331 -13 1482
348 -13 1516
361 -14 1532
372 -14 1541
380 -14 1536
387 -14 1527
394 -14 1516
404 -14 1518
410 -14 1506
425 -14 1524
441 -14 1549
446 -14 1531
457 -14 1536
463 -14 1524
470 -14 1514
475 -14 1499
479 -14 1482
475 -14 1440
436 -12 1294
465 -13 1356
518 -14 1482
532 -15 1496
546 -15 1504
554 -15 1501
566 -15 1505
574 -15 1499
586 -15 1502
597 -15 1505
605 -15 1499
615 -15 1499
627 -15 1502
638 -16 1503
645 -16 1495
655 -16 1493
664 -16 1489
670 -16 1478
669 -15 1451
668 -15 1426
675 -15 1420
678 -15 1404
676 -15 1378
683 -15 1370
684 -15 1351
696 -15 1354
691 -14 1324
699 -14 1320
687 -14 1277
694 -14 1272
692 -14 1250
682 -13 1214
-827 1 1477
-813 1 1473
-805 1 1480
-788 1 1471
-779 1 1475
-766 1 1473
-755 1 1473
-742 1 1471
-730 1 1468
-718 0 1467
-708 0 1470
-694 0 1461
-682 0 1460
-671 0 1459
-550 1 1212
-461 1 1029
-446 1 1011
-454 1 1048
-470 1 1105
-468 1 1118
-466 1 1132
-460 0 1138
-454 0 1143
-450 0 1151
-441 0 1150
-429 0 1139
-406 0 1095
-379 0 1040
-378 0 1058
-371 0 1057
-361 0 1050
-359 0 1064
-364 0 1102
-354 0 1091
-341 0 1072
-333 0 1070
-321 0 1051
-306 0 1023
-297 0 1014
-289 0 1011
-280 0 1002
-273 0 996
-268 0 1002
-261 0 998
-255 0 1000
-250 0 1005
-242 0 997
-240 0 1015
-235 0 1022
-225 0 1001
-220 0 1006
-210 0 988
-206 0 999
-197 0 984
-195 0 1005
-190 0 1012
-184 0 1012
-179 0 1014
-171 0 1004
-169 0 1026
-164 0 1037
-155 0 1013
-151 0 1030
-144 0 1026
-138 0 1022
-133 0 1028
-128 0 1040
-122 0 1040
-114 0 1020
-108 0 1017
-102 0 1017
